ply
format ascii 1.0
element vertex 698
property float x
property float y
property float z
property uchar diffuse_red
property uchar diffuse_green
property uchar diffuse_blue
end_header
-883.7082170326457 -725.2149744588145 -70.54614746337298 125 151 104
-739.1004762648058 -784.788025074491 -83.41918901182228 79 90 83
-786.2617629333052 -679.7465529172832 -69.71106975091092 144 173 111
-1248.8758071255777 -1028.8043870143597 -58.318227762061156 117 127 145
-1182.5628713056376 -3473.93158622981 -124.9731847895492 91 116 103
-516.0341736580328 -673.8516227168018 -74.29722953066985 58 75 60
-440.31564891702334 -684.9654036922087 -90.00727561260022 34 46 50
-758.2979698785182 -689.7421474716672 -83.41819292469187 41 56 63
-821.674706076885 -650.346880919381 -68.27127608905656 109 131 91
-821.5364197742545 -992.7750002974618 -92.68689290384424 132 144 138
-711.0018550763817 -1091.957363892368 -97.52266238460406 114 128 108
-655.3306366891753 -660.0804756353335 -83.70931509986731 141 163 110
-821.6997470122707 -2739.9335794511944 -127.9767208767515 212 212 213
-445.5366230616579 -556.2608914497553 -88.70268260858299 125 138 102
-289.0925569005399 -664.2829375657213 -84.08931566120867 134 130 124
-733.9516824171138 -1200.9583894858315 -96.93408073367557 136 138 128
-389.3716375200715 -994.0574706490809 -98.22404038928674 114 134 94
-742.3030421920188 -531.396131538333 -67.37284079591939 121 157 90
-908.1484127849341 -2093.8234089624502 -118.74160740647102 235 227 213
-717.0370898033877 -546.9349701679693 -73.20946003923426 128 149 101
-1228.5200498733725 -2452.4095722686443 -115.1498928313406 105 114 118
-342.63602177332166 -683.3357209716721 -88.71703748999569 41 54 59
-537.0113712268882 -1520.325100276984 -113.21861233669283 156 162 170
-458.5106816708079 -1316.7966388178495 -104.30660516913765 161 172 146
-717.1366863395481 -772.7452835236472 -80.33907004215551 132 129 125
-935.8614780709395 -615.7200844494773 -49.39231378298517 194 185 173
-556.5547651554268 -1198.6136677287484 -97.7731416274465 56 76 66
-1250.2889141671274 -2209.6039356278707 -111.6982882746142 153 176 134
-628.3798127841474 -475.40584624816734 -73.4511099999726 88 95 80
-2491.4393320590148 -2289.40759550918 -24.638973945000263 126 127 141
-678.8843274212046 -1111.181260333167 -96.43494005289035 59 69 67
-525.2436617156758 -1055.54086023309 -95.67277983992068 111 147 85
-876.7483166089801 -930.6172435421195 -88.5357174933988 221 220 214
-449.38086616320237 -870.6487191794087 -86.29212203552838 53 70 59
-1890.7287745299318 -2513.594650518506 -85.99194575485998 75 99 100
-635.192260460528 -614.3054790046344 -80.51360766588945 103 137 77
-2688.5769554216417 -3507.3783335102908 -73.34302068965987 68 94 102
-1383.8155923775048 -2564.1425871168153 -108.19347594025422 210 210 211
-696.0764264034403 -2969.74993108949 -104.27821157393782 77 96 98
-391.14976171643735 -601.5802843217407 -91.01439246794381 56 66 65
-514.3627861997035 -1296.1695750911263 -103.11227268104882 133 156 118
-1038.308860777997 -641.5685101872333 -47.35443178073975 206 209 212
-769.1260061708675 -393.942833058255 -45.20388219248211 84 123 71
-542.9532086998712 -763.9504741254394 -91.8010843165778 83 100 83
-931.4298697399093 -1151.262864755409 -93.53512926153284 214 203 178
-406.7179933165185 -617.3165946398874 -82.16314855623489 108 132 85
-562.1262830296323 -600.7886903988921 -66.53523145879988 128 153 100
-2191.6198568853406 -2704.5462088988697 -73.16101490485717 142 174 139
-1489.655967192198 -1675.904416622794 -82.86243262636091 242 236 225
-393.2074090762235 -813.6689080328741 -89.28525964885574 45 62 56
-1591.106638187421 -1938.1173538108758 -91.58193358657871 225 228 232
-1259.6042762321783 -3405.2560797550163 -110.69194740384927 127 154 129
-444.8724057404053 -755.8905418753845 -88.12137184103325 132 143 109
-354.29428428986057 -973.9704475225527 -90.84284716306699 119 145 102
-539.7308521074438 -577.0493707854927 -88.78761016908894 128 145 109
-606.341976626231 -1273.7557720752013 -113.46296748844681 129 155 111
-668.8307638743493 -736.7239335264895 -85.03560344771765 134 154 101
-974.5400875438644 -840.1124575245236 -81.24026568168397 165 182 143
-1047.4695654704167 -903.8477628629628 -67.17443671909449 208 213 216
-733.549111526527 -893.9473485588132 -82.55968220165597 143 174 114
-577.4303746251902 -771.9512219125967 -89.34229511326981 39 56 55
-508.9753682320263 -2073.52237845062 -113.04139140199352 205 208 211
-842.8416029480377 -826.9790807872585 -82.33960084893596 160 174 147
-2415.243775987702 -2521.3597693383576 -45.59641523298075 215 218 225
-912.3712381518689 -775.5794157131188 -76.47648091530226 160 173 146
-449.25146758720103 -553.3987330434942 -88.3739748478639 45 61 54
-514.7696728879317 -870.3180142133641 -84.66856746429316 67 93 64
-587.1415090177736 -497.9490520706043 -68.58841495726094 141 141 124
-408.41066999190207 -545.9203508393841 -88.19428804499002 123 138 103
-611.806811616258 -871.2855029581228 -94.32397839079391 40 55 58
-896.3068248706262 -536.9349723131627 -48.29264643201156 157 178 112
-1080.0444122519789 -2786.1849405170833 -121.73318654303142 97 118 112
-2417.499706684532 -2428.2904592467758 -41.37870951699116 123 142 168
-355.44540594512875 -1070.9973318119562 -87.77406118398588 96 116 85
-329.25581345635084 -917.8886226477188 -86.66030580994563 62 89 63
-744.106744425719 -692.9403781353271 -75.03050673844098 39 57 68
-807.0295267946381 -651.4140760105507 -69.66370733447025 109 148 87
-1828.2965894474328 -3263.7181726546733 -98.76823169403764 89 113 108
-508.1966634827049 -506.07758646413083 -86.01902411201154 139 153 116
-409.2133596211632 -662.4354099478896 -89.98307283863367 118 135 99
-854.2883937644632 -483.3384223389235 -53.9118289992469 152 167 126
-1123.9077621388383 -829.1104563575138 -59.48820235075228 176 185 174
-1513.3853719413805 -4379.214572558336 -123.51480798962187 127 153 126
-853.3459927567317 -489.3405380553118 -56.06485472929684 151 169 129
-480.7949071230239 -536.5929103935773 -87.37852257584639 130 142 107
-1049.547678023379 -1277.447636851103 -95.00720544164375 106 131 111
-613.0724630694006 -769.5040399930385 -89.89859433102477 44 60 61
-1059.5354478045267 -1008.6147569397689 -75.97288527513857 237 240 245
-312.37886064606636 -854.8007067072976 -89.59649848045937 135 149 113
-619.8956249387824 -880.3623603222895 -85.06156629590774 127 158 93
-417.6405832453119 -682.1660640393301 -86.10177972891887 41 55 56
-416.87179275780625 -611.4004281492173 -88.8619079849927 54 69 61
-965.1104783853878 -739.9690002604866 -69.37364466649899 47 67 71
-463.6154751132413 -534.1627420639564 -88.47381936124644 132 146 107
-386.3786779404269 -712.6963457961518 -91.25558399792062 141 164 114
-1263.6472642088302 -1253.417374024433 -79.18856674158368 226 219 200
-596.1924707504371 -912.5799135018566 -81.62573023373406 125 159 94
-1281.9262673444803 -2858.2108357529123 -107.39406197867955 96 118 113
-1291.9834308837144 -2686.573028975033 -113.73121457406782 69 88 94
-836.6268428477966 -605.6544955447577 -65.81476089740622 54 61 63
-481.44932244887383 -563.822334890894 -86.13999684623685 43 57 55
-1866.4564918674016 -4021.5464573125787 -109.99372858137988 77 95 97
-902.0946077470091 -614.3503472022045 -58.885551121138434 55 66 69
-2785.030339990893 -2756.8030974064804 -15.077460602855634 234 238 240
-2885.7516790579434 -3198.8470387648517 -42.951991550732316 79 106 102
-392.83725648546937 -1033.0604074664764 -91.20005502026952 47 63 62
-401.72623695808085 -683.3535216101145 -92.55983858389465 43 57 58
-968.0504015025477 -649.7861704619705 -58.821541622395024 68 74 80
-1134.9176011667448 -1260.2773693023173 -91.34218840604225 118 144 120
-509.6227929380954 -531.7478473779089 -87.10395628350021 122 139 99
-947.4463543358479 -902.9502884614188 -84.78210729354745 224 223 227
-631.8837295589143 -1127.963007210831 -97.02543975290509 118 144 104
-1336.1532826131863 -3088.326250811518 -108.17204925741348 144 173 141
-409.5727100326978 -642.5759052616797 -92.61527002520182 104 125 86
-486.6417042812657 -1073.819641610623 -91.98782306029806 43 58 59
-805.9231521492236 -637.7399276729985 -71.1743989188236 55 65 70
-430.68687907471286 -561.1951699542196 -87.0420708555385 119 134 103
-707.4763650938241 -586.6026466002467 -65.86639021593864 159 183 114
-1350.4832192952297 -3146.643373638512 -116.55504735037529 134 163 137
-388.1041188102207 -590.5698852376491 -85.0960095210044 51 62 58
-687.6025661964893 -943.9190236927593 -83.04713739802717 72 98 75
-375.3213280923093 -860.2858282259705 -94.2110388872578 63 76 67
-880.5212037146802 -875.7073891411469 -83.0524767260863 55 75 77
-921.9727248531153 -1078.953859671918 -92.3116658147995 144 165 130
-983.8936835160017 -920.4641660219849 -77.59162876616995 113 143 141
-519.5199895821044 -634.570574359586 -76.3460533837399 112 148 86
-486.5532262992772 -534.1811461236169 -87.69677710074703 134 146 111
-393.5018086430236 -620.6743488748813 -90.1617256452222 39 56 56
-396.1485541260123 -679.8774151065919 -76.5120313692927 112 149 83
-403.65265648061313 -641.3149817274522 -90.9318762697409 118 135 99
-1219.9866259306552 -883.2436545182953 -47.65348421089307 115 125 145
-797.6170128858972 -645.7211145762832 -60.39650644057665 106 142 83
-554.5838166245032 -1161.6865372695543 -98.19233227748194 107 135 95
-876.0960688542732 -880.4844782298879 -78.70409575631975 127 163 108
-1260.9080943563622 -1722.9896339703046 -91.37502546932532 228 224 218
-1181.0227035022976 -2805.5794489502346 -117.05454432360622 102 125 115
-632.0898601858089 -708.6863782734603 -85.41077454550835 149 146 130
-661.2122658034449 -879.3542481790879 -82.40789207243506 61 80 69
-3479.756982675716 -3898.390689604936 -25.593748531377564 144 156 140
-504.4618067632091 -759.4131991741308 -91.50714198236949 45 63 63
-1953.7008263809623 -3344.810659903919 -100.67916010356765 199 191 172
-746.2986894188048 -601.4003805084236 -76.13809114472669 52 67 66
-606.7630560754654 -671.5700403863065 -85.90848604045217 104 131 83
-363.9569072807152 -611.9032222274765 -90.23080905942625 136 147 115
-494.27084335163073 -1203.500824647603 -103.12928432712444 128 150 113
-787.1915967204484 -663.0249534492901 -77.24396520644241 120 132 105
-763.3829864155083 -1027.4336827937536 -91.13733418911843 55 79 72
-532.0257230657021 -564.6339922606661 -86.69216636161833 131 150 112
-628.9161374104838 -2050.368129694957 -115.96902090280568 177 184 194
-797.4261815852942 -710.0509850842222 -72.61976012731424 45 64 56
-286.75576629564216 -749.4286225691322 -87.37095959372476 177 166 150
-437.25660923480586 -935.4571926493405 -99.03524812416181 107 133 94
-1047.4016509083444 -2791.941285156724 -136.76313888931836 201 202 207
-619.7545807669287 -1380.4142419518678 -102.71148292662072 197 186 168
-2877.424573109994 -2583.323636318726 1.3833371039440652 172 188 195
-392.9227950859035 -544.1970259973634 -82.53596288983371 43 56 51
-536.322718515149 -770.9878110437998 -91.10267890307064 53 70 59
-744.1449918872947 -399.6213394386677 -49.23922765947317 65 88 62
-936.0446100158542 -786.4349903375474 -71.39073570041336 102 134 108
-331.0359198463506 -689.3929734818246 -79.76224816240625 66 89 64
-1513.3238619805816 -1919.7404203397941 -87.12148033673427 233 231 228
-801.8687461266679 -1124.9221288409205 -99.6195083673888 155 171 130
-505.1792885234758 -761.0949794090426 -92.16730046987315 41 55 55
-761.5306964042867 -383.4600972809355 -48.69414054478724 28 44 44
-1553.1806003513773 -2203.4600664867594 -96.85628384226037 153 164 140
-307.9486132063981 -768.1767312452463 -86.8690549551402 103 128 89
-1082.5900190539542 -945.2806364582306 -59.015826445308655 136 162 116
-1088.2468461029048 -1070.7637187650457 -83.39110322311845 238 241 246
-702.1434837031235 -456.01864004089293 -70.19591624381599 51 59 60
-813.4624299011981 -412.3396960588981 -41.09094992205227 52 71 60
-1169.450333291429 -898.9890562422322 -65.31870797876715 115 122 142
-816.7984578907144 -1092.8490916852627 -98.8657613228761 133 134 113
-816.1030015491665 -1043.9193823404264 -94.76862572628778 181 182 152
-500.500752571666 -748.6691717262794 -91.6020979884391 138 164 119
-1013.0090822020273 -695.4096687893685 -65.81002524554754 202 204 206
-566.5769585478681 -521.8919523837436 -82.63016922245265 33 49 47
-687.2335385916143 -638.1824348981406 -80.94724859145641 154 159 133
-476.4250523586888 -953.1295774890767 -92.50615030219869 98 125 84
-838.9096876329934 -467.84665451415106 -56.42407561354881 148 163 120
-1447.5451887770714 -2611.3004823479564 -117.1690544957678 207 206 211
-276.50190666396844 -617.7738919874737 -81.8033806639118 133 135 123
-562.6505712596946 -536.7234442656165 -85.48159974422556 40 56 55
-1223.7851459459362 -3458.7255703517094 -119.01413991512612 86 106 98
-365.8416670623147 -729.5198387281423 -78.56739874238534 141 138 127
-427.18547184216527 -529.4708062375248 -85.35425108288098 118 141 98
-461.3860975514194 -697.5617196741825 -85.86546662994765 113 135 93
-538.8866383503724 -628.6027492589275 -79.57089760666543 42 56 50
-907.4218538379426 -783.5726916290326 -77.54058853871516 163 174 149
-459.1453487606219 -2071.5816305977837 -97.0412260454672 154 160 139
-940.6597306369802 -654.0846320978522 -63.19565691191712 115 149 90
-520.090492377229 -980.2496783858348 -89.7705909792044 40 58 58
-394.2490928202051 -594.7723680059333 -90.91382362035674 134 144 114
-851.8398797945739 -1191.9726857301023 -100.33070778317956 137 166 115
-757.22782089294 -538.7854674947258 -62.12354825936889 98 129 88
-2362.8579063394623 -2511.905929185975 -48.53530166845273 255 254 255
-633.6276553903305 -783.993820436495 -90.65313881300422 50 61 62
-563.8227525427623 -964.0296179851737 -90.16165388168685 120 147 102
-2274.622449502582 -2755.195583254342 -67.23929390242371 193 195 191
-595.8170393062293 -1523.2866107787606 -108.76494113626492 230 223 212
-439.09625235246733 -598.5060133842235 -90.91221636832915 149 161 125
-458.6552076046684 -628.2587978846644 -89.01261254513862 42 55 56
-330.0685778351584 -694.4061435670712 -75.91573977996588 88 114 74
-769.7615188130254 -2823.245126225108 -116.59986699775791 101 125 111
-1158.5746570646243 -1253.4641559116528 -86.7177569214699 226 218 210
-312.72724935097835 -668.5385926085145 -88.25023779935471 69 75 80
-551.7437767778378 -559.7810849056604 -87.98403628574867 129 144 105
-1469.8057887446896 -1059.1617968708758 -39.01174776155711 153 153 138
-1116.278716239712 -911.4041656865213 -66.32093158458277 188 189 192
-531.9317222019403 -956.6485166520428 -95.86449481249187 88 120 75
-418.8234383716195 -674.1899471715003 -87.60515517201081 40 54 55
-2489.732366428944 -4088.4279580273187 -95.18309793456449 64 91 96
-875.1892308718407 -981.1186429993486 -87.18629112382591 183 184 165
-608.4109583689371 -2827.0863200584454 -104.84410530119524 78 98 96
-609.1886716562208 -1108.5339378503813 -87.88240230350215 99 136 91
-487.45336861237536 -1914.9253576398585 -113.09055207181555 169 176 186
-1485.4461707062562 -2734.3816705272197 -95.29432587526139 65 84 99
-1216.5325658192728 -1014.404237122235 -60.78207735649044 117 129 150
-595.5382828389197 -787.6874575656581 -86.341174459924 143 149 122
-456.6716417682081 -843.1576305937492 -95.81787425213884 111 116 103
-549.9778204615229 -566.4034898687403 -86.90135944643968 130 146 108
-2802.0558891420633 -2689.5926389411193 -13.519451132966863 54 75 106
-985.3330323531337 -598.0765466138538 -51.528507413756536 145 167 128
-2402.9125450251126 -2269.0697525207906 -32.73837899371083 152 101 135
-538.4681875231488 -642.0930397934171 -81.24176532884577 127 142 101
-1123.9023680600983 -871.0422282249452 -68.24439771950404 109 120 137
-1101.329072743908 -1186.37681226715 -87.8031094620161 141 155 149
-599.1862626374763 -1162.1746519331439 -94.17375105144129 55 77 66
-2112.506064213777 -4081.5408683627297 -104.22022471608298 94 112 105
-929.3128269555913 -586.3168734628275 -56.315577022425195 112 128 98
-2046.32797530732 -3003.645832720183 -96.27796174169887 125 156 126
-1115.5158098124882 -1301.0354526455828 -91.1444219479187 186 188 187
-1686.3052541291938 -3219.664764039984 -95.61977060681241 132 163 131
-850.0427101598144 -622.3361353854843 -64.61513653445472 57 64 69
-500.799544808553 -693.2152334263078 -86.55925593839444 94 112 87
-1148.3261491763485 -910.444169241209 -58.36654820533001 99 112 133
-447.3878090468286 -623.4231173979457 -89.36853801442311 45 59 54
-658.9653555685379 -1526.1814722837012 -110.63965229278787 233 226 211
-2330.4293217604786 -2933.1970329796727 -56.47181032971472 137 148 148
-2482.603707507036 -2640.0717804551127 -41.379706492950454 224 226 230
-360.94219159835575 -791.3077641197183 -92.97288753835534 123 138 105
-1047.7464372656239 -3384.65745422768 -108.96182648701604 110 136 114
-2057.248044908523 -2656.5612904189106 -76.66851407883635 195 199 194
-1180.1761189950512 -1074.6999576258486 -68.09501830604576 152 175 140
-651.8235849326978 -1126.618484108847 -91.39591913670671 161 186 132
-1001.5244389649644 -912.4464912928037 -65.42726973694798 193 199 209
-573.2726253910462 -875.8690124000458 -85.92471440658386 42 60 58
-294.3804520986501 -763.9346996010694 -83.23549967280643 77 99 78
-712.1035382087998 -424.17618138104535 -64.58557790183531 45 63 54
-637.727982137966 -508.4966369092259 -69.94348084446943 62 73 59
-743.8972324044151 -1373.6867656253594 -103.97736486440152 225 218 199
-458.73171706021606 -971.4362313302711 -89.41413303340315 52 67 65
-580.3926062598955 -1290.9419761485674 -100.32394515774845 186 178 172
-507.41748602172083 -492.87093367239356 -85.63097574020551 142 157 120
-519.9071851932448 -592.1257171659649 -87.60406512802864 113 125 98
-444.58848587215004 -543.2964647286866 -89.10912773052016 126 143 104
-595.8170393062293 -1523.2866107787606 -108.76494113626492 230 223 212
-308.47144599842983 -873.731696282163 -87.66092941083197 63 72 68
-2316.608070441693 -3363.1111131712364 -88.38580448208579 144 178 136
-294.5672260798323 -651.7155533298561 -80.63361519760208 82 100 82
-565.0593417666914 -762.9650034908536 -92.00546973716902 121 149 104
-496.07521136587235 -506.9254390598813 -86.08619413866178 62 76 66
-276.622733161103 -715.6442040238253 -80.46160226213479 59 76 67
-573.6271658426501 -1129.2856995830527 -94.15588127527977 67 93 74
-1119.7410368447004 -4172.501721136729 -111.29564237263921 122 149 126
-492.43790871277656 -956.7912706907213 -92.86737935988323 72 90 73
-2318.1124789136306 -2514.575467344049 -67.4639868228206 101 115 119
-2381.2174086085156 -2405.93284011074 -62.104377845058295 227 223 220
-710.7168106376837 -789.5666646900834 -87.72703063661604 39 49 54
-474.97817659552226 -1010.9025685120782 -98.81451982388579 108 132 90
-446.9158877579588 -1156.7599885166048 -104.10152335499072 92 119 87
-315.3091333364349 -817.2211992844692 -80.35314970713564 53 74 56
-1815.6169500481076 -3082.3314356042874 -97.26772464981805 90 104 105
-978.7623819505487 -936.0184468660666 -78.2155938075522 130 166 200
-569.6850373706844 -1006.4116666638354 -96.37607593974836 37 55 57
-1667.5605508042484 -1458.4185592233348 -56.22093429423735 189 192 170
-1447.1847750763097 -1299.6125669344312 -72.62427703361624 118 129 149
-517.8850776950943 -635.5119792869806 -85.48091019985539 33 47 48
-481.3959073551855 -613.7457160354286 -93.87169217903848 119 130 98
-558.2273729174422 -1188.2557129843171 -95.14589718597698 62 78 71
-1000.4553344181526 -929.2612416381555 -77.9564214833182 81 99 120
-754.3793576343094 -1170.7945178700745 -100.3481630649204 132 148 120
-1761.267940128569 -2005.347163148104 -88.2307179506997 169 193 154
-361.1976034156151 -736.7726848545226 -87.1942153970107 49 60 61
-1208.7846300391539 -1025.18467260752 -50.91840358706992 150 153 161
-1112.755050620186 -3031.4480369261746 -116.42060442474211 124 146 124
-868.9503670708217 -689.2298713364706 -68.23602705290979 128 140 118
-392.83725648546937 -1033.0604074664764 -91.20005502026952 47 63 62
-587.7582386472786 -1036.7613172991673 -98.64498298455614 113 143 93
-772.0796228629953 -898.6947935360475 -84.42274422634934 105 140 89
-568.9976144819276 -1330.4926342276433 -104.75644481617849 123 150 111
-943.0869982760668 -687.9958606897934 -66.41495884697868 171 179 157
-854.9737843948429 -876.9480129517706 -85.73510008978536 155 160 134
-1736.829631016898 -1483.3065928028311 -52.4483289944922 168 173 156
-858.3749087326273 -2857.9923562076274 -103.7932324134752 120 141 131
-553.7701293178999 -744.4711327777568 -91.85720499583933 72 86 75
-319.2334658233938 -972.0480720596101 -86.95900063277973 98 137 76
-597.1113415969411 -822.2533597943484 -93.13703642104643 164 168 142
-587.7309012026406 -478.8007817193831 -63.80917837858309 108 137 79
-1686.0751815081476 -2606.1887087763766 -94.97886195063239 89 112 108
-970.6006486862527 -2882.455415335785 -108.69205872334247 134 148 139
-751.3127630946321 -1124.8029430327044 -100.60729805951446 142 156 124
-826.9244980277733 -1022.6138111854491 -93.13598051447049 144 177 122
-2306.581471234566 -2450.9033863678014 -43.9522272642622 230 228 226
-1130.9392870117788 -956.1215024359617 -69.4540991188443 133 145 127
-841.6641837919617 -613.7618877987405 -60.032292590238 55 65 67
-454.3347783914074 -677.2686992767335 -86.77715110913024 52 63 64
-748.45378996264 -735.0831332922966 -75.49150525046402 83 88 81
-492.04156796784946 -673.5931964643088 -90.79362705736692 40 51 54
-494.85727806406095 -633.1938204952697 -88.59388469479094 45 61 56
-2002.5786096216232 -4942.75538686333 -114.1555015673797 62 81 93
-753.0074567865462 -1357.3654800337931 -108.2566701281033 155 153 145
-1422.453462698451 -1859.4128191169734 -91.86321053197628 178 184 196
-507.56664510571494 -1217.1118374648872 -96.722534996529 46 65 64
-1205.1326610283033 -1255.4500447122273 -81.41169084056143 199 196 186
-777.5577157047171 -607.8786457129733 -71.12784942064788 130 149 110
-791.8424405385733 -2031.6031422335398 -127.40623132732205 187 193 205
-546.0631598592665 -624.7950016399749 -80.35965100304517 60 76 61
-486.99460296010085 -1405.2713986692559 -108.11902161340552 204 199 173
-561.2096559056625 -481.8944895499051 -81.94200238307353 146 165 121
-466.0396243797556 -628.7139292564364 -92.06036207069597 106 123 86
-515.3257285676199 -508.45227720366086 -87.13258515821748 146 160 118
-441.9064411658802 -826.1211347831635 -96.90017996707446 102 99 97
-811.8754802215179 -586.6178474695936 -64.04223520274655 132 152 112
-722.6669554372405 -2953.9879937780734 -121.20891546275507 134 162 132
-426.0498164386626 -892.7125407265265 -94.15308772240567 106 141 84
-826.6877759020585 -1036.5401110229827 -95.22754867492127 91 118 91
-719.5284522665977 -2984.8268035598817 -112.05646963340453 89 107 107
-1869.5928364421595 -1732.7795939078128 -50.6548274682088 224 227 232
-758.2979698785182 -689.7421474716672 -83.41819292469187 41 56 63
-1052.786253556259 -884.6638507092571 -68.01316343983812 214 217 224
-786.9331794026833 -406.7069879668779 -46.683281211007916 21 41 43
-410.14743384231673 -915.770101861626 -91.36198652435735 114 152 93
-584.2399195155655 -467.54227564342546 -78.11529521224396 111 149 97
-2088.4195776462234 -2859.026003941456 -96.99000100430179 178 177 172
-1720.224961439461 -2640.036293905103 -83.79756784043643 143 166 138
-736.5451495753106 -517.0737863319788 -66.12217698779284 41 60 56
-320.5372594350422 -1070.7831489013558 -74.77343215200376 93 124 79
-322.7244698741839 -900.7178636984052 -93.36252979986207 53 63 64
-628.4336453510947 -672.6398637428987 -82.66868872986596 57 67 70
-989.0289249271233 -877.3703858615728 -79.22970759091065 194 196 187
-691.1692860845544 -863.2941167156029 -93.16864052999713 168 169 152
-407.86305940629245 -1296.032589320462 -102.89251635460982 171 168 150
-421.3122707554048 -676.8067137012581 -80.3620383886473 105 109 94
-1616.7930495584833 -3982.7464868982106 -128.0841801754894 83 103 101
-771.8540263515647 -455.9437717161431 -58.83001442000804 128 159 108
-519.419386971197 -634.1018582368604 -75.5666394123317 112 148 86
-314.3371967404919 -792.3099498061154 -73.99771329081219 113 147 82
-416.6835038978317 -653.5867235521313 -91.91503768632771 105 122 90
-858.1442912570404 -791.5231061345816 -79.8184595166213 52 72 70
-494.7196759857652 -2930.3882038720453 -83.00045205075793 74 89 90
-425.2834812131096 -737.3810940400555 -96.53152650967952 46 60 60
-943.9741238057024 -849.4742174966213 -77.3405946161508 65 86 80
-982.48058996867 -730.9795074420875 -68.17650065261739 149 166 130
-478.03711880518296 -835.5990537339386 -91.39962097489796 119 127 104
-294.66710699435254 -972.6843027346923 -88.30928612122784 50 68 66
-1013.6566418355557 -1175.1139772845781 -90.66848369851739 226 215 195
-745.4600620294789 -424.49777665636316 -56.582147233258695 118 152 88
-329.5530803165138 -753.3264896283348 -81.12659853351958 97 116 89
-569.8622747525651 -552.9583821110778 -69.5669769068674 94 128 76
-643.6752803130443 -843.5553685644328 -94.29800339387018 140 150 122
-751.6389224346206 -985.9335572949907 -85.5574927883307 105 142 100
-274.83224147316673 -631.6156361051206 -81.04674936795183 176 175 165
-551.8121111080812 -842.8396909780757 -93.88757215763091 118 142 97
-1087.5799208278693 -964.1734801369538 -59.71176385147866 85 100 98
-2025.837873605589 -3470.172311154406 -96.44301328613936 58 80 95
-2824.1157525648846 -2835.734233445311 -19.87597580594518 244 247 249
-505.11780757781264 -641.100447753562 -90.25531936243443 142 156 116
-759.7523244353721 -1033.1159719164361 -89.7630508418391 117 153 100
-437.00246680307515 -577.4733098025023 -91.39163330700293 122 136 103
-542.7246427465975 -597.2530272944067 -79.32767431855503 39 58 49
-796.0099625521843 -1138.9683879715415 -97.84415020951961 158 170 137
-459.06550933399893 -535.7385352223127 -88.8777667157633 91 107 81
-1156.381416404417 -944.2298898488096 -72.3306104668041 215 198 224
-1105.1690445379522 -1268.9431911278868 -94.46030493242124 97 115 105
-938.2410286612172 -539.0518004929041 -43.718916039069114 186 182 171
-628.4419563781329 -2048.0683629807995 -115.19353883114125 165 173 182
-835.7982419903083 -658.96509095621 -66.25785654175088 137 165 114
-474.872186919267 -668.8900462729692 -93.51529605154788 128 143 114
-458.79905678397097 -668.906490647448 -93.11132685054069 119 131 102
-763.9725050988951 -981.6552428697328 -86.97574748549496 131 168 101
-904.6549553941094 -746.9587446880303 -69.27927162261281 166 178 153
-2057.248044908523 -2656.5612904189106 -76.66851407883635 195 199 194
-379.9678858057844 -1016.1943062526591 -91.39592638704474 118 142 103
-740.0539746379824 -718.6480410882671 -78.42445502280489 117 152 93
-687.0698544866607 -469.3588991389464 -60.212932784750706 36 50 50
-379.57221889154994 -1252.0691516025495 -102.81740747544976 67 74 76
-379.99372896596986 -1055.9451029156498 -96.8573846467239 111 139 98
-708.2782656243477 -866.4142491578032 -95.60515546663194 153 165 136
-504.2389265711521 -670.7677452732728 -85.55695416681449 41 52 49
-649.6267896424686 -2789.6035923266995 -114.70760545831341 89 104 104
-383.68508350212795 -687.296218624609 -88.18122018037585 41 55 57
-383.68508350212795 -687.296218624609 -88.18122018037585 41 55 57
-809.0557379169416 -565.3108962743769 -64.45712656648578 140 152 117
-315.57997073449695 -717.0268384359224 -88.63255093803804 48 58 65
-2839.632805194072 -2946.5530212411895 -4.176924080318894 112 122 123
-1368.8570684848437 -2945.8953801285793 -119.24124888229392 131 161 132
-1126.5546473461839 -801.7882020412346 -52.60911743445445 196 195 197
-626.3650923649856 -668.8310446036976 -80.7105789145886 43 53 55
-710.5177214025188 -1187.3996795564706 -97.58942519900742 99 104 104
-322.7244698741839 -900.7178636984052 -93.36252979986207 53 63 64
-949.8215169790755 -1092.4853794819003 -87.31672648196334 169 181 143
-601.1699921187137 -980.3230118689663 -96.13482318762016 93 125 81
-456.3354214989666 -876.9036643633824 -85.83602940303774 121 154 97
-2911.1394162858146 -4821.461628694409 -86.41792951055027 135 154 132
-828.7846790111903 -2753.1080867170713 -113.30384128901551 68 90 93
-708.2782656243477 -866.4142491578032 -95.60515546663194 153 165 136
-471.8547363591117 -1566.9618483791808 -110.20297922374947 166 167 146
-541.7531208035372 -1416.922547764486 -109.77388403821794 203 198 176
-879.0844791188221 -599.9852383231683 -66.6138995582021 74 79 74
-731.3722303848939 -526.491439711638 -59.21594168300671 111 139 87
-747.457008937191 -521.1580937084142 -66.21106615266332 150 184 105
-2770.917022030646 -3843.883742862016 -81.08898177773297 141 169 142
-408.51941663513503 -675.8843298218469 -87.49602011087191 37 50 51
-3263.637137653684 -3279.692525863674 -14.822087210485007 71 91 98
-1074.3064454788694 -954.1676628220722 -75.25411845445986 217 219 223
-2582.1921159979233 -2612.1923196775024 -36.13283130617372 243 246 247
-511.3575059180913 -989.6983162209617 -101.38771896868671 111 141 95
-428.270836295633 -512.89260973712 -85.79766028874577 90 126 81
-2978.694099351658 -2748.611440301986 4.307072714834035 78 104 100
-573.2411880184404 -1128.195641652233 -93.8630880147975 66 87 76
-866.8679800361863 -932.2706751740171 -88.69466378756653 232 222 212
-847.7421233642212 -1026.205879141056 -89.50544988988486 186 187 150
-970.1144459195061 -659.8959455318369 -61.32804357530429 85 92 89
-399.86693864303305 -780.1041397422844 -96.10793572831815 122 127 115
-611.536283170929 -1002.4677068749035 -93.31974521856486 59 81 64
-882.2234847029943 -1292.3969525597158 -100.32149060233516 160 185 136
-604.3698151132987 -430.9891666798812 -67.22729167785691 40 52 49
-849.8250267597276 -886.4220353721275 -81.76820170713273 147 173 130
-731.8370681406509 -506.021148086511 -67.3713469763983 141 157 105
-947.4463543358479 -902.9502884614188 -84.78210729354745 224 223 227
-1848.3858291284243 -2630.5211035741304 -96.5501072252388 110 138 119
-1221.8453094844267 -1220.3141666816173 -73.29891249040256 205 197 176
-513.7092733382387 -789.9508502183055 -93.3220454034385 162 161 130
-1807.7812184787722 -3307.5368085454475 -110.2702920589671 120 152 121
-545.3528193407078 -476.1071981695192 -83.03604029096586 53 67 60
-302.101580392875 -891.5955889102066 -85.51067938910549 126 147 108
-285.7954122411959 -712.8065529598856 -83.45525056918908 65 76 70
-503.19625444697954 -507.18875172664946 -86.46462129975693 58 73 64
-271.45845582535827 -643.7729186860645 -76.09159577086933 125 145 153
-1918.4840081526556 -4064.8052254555655 -108.9545031056289 77 97 102
-1599.708681971674 -2463.4981587593484 -94.0009232813383 197 199 199
-764.663955547521 -533.2510577103957 -71.18847663448211 116 138 102
-2197.908378508657 -2713.4609264842456 -75.15348348111992 141 175 138
-399.0388498567779 -616.6201134510886 -87.95369274130842 120 136 107
-909.2072270968439 -577.1617209511194 -54.39017182327514 127 127 125
-446.1626655167095 -729.7555180054833 -88.80895289475212 51 64 57
-1551.9272114754895 -2750.9860259577235 -98.72714482075673 115 145 127
-890.982222089596 -657.1219658549752 -53.10426720330558 148 180 106
-525.8956112025706 -837.4127407040135 -92.51015072639011 51 68 60
-632.0538332422071 -1282.1938768398095 -105.56465759005447 85 109 95
-897.2635406880903 -606.159691961924 -53.91053028713092 61 76 69
-355.0309361876685 -957.3656920153237 -90.57067745162946 49 60 61
-585.7406373866951 -1949.7715827743568 -118.06579969528903 161 169 180
-433.8005983462728 -672.9652996629609 -90.04143968270448 54 63 64
-831.2736464907472 -1344.068207940081 -105.01394032631738 122 135 115
-840.0973427767168 -504.4345800585477 -61.07202968946652 152 166 131
-486.63265133712633 -565.2260514062035 -82.30772943252978 113 129 93
-832.2546603571033 -714.3759725939632 -65.52913256215828 78 89 87
-1679.5456297966707 -2591.2552649718673 -108.92757912724062 209 209 214
-567.7085603583342 -1066.6075200930204 -97.95664892166897 68 90 74
-2613.3662215769286 -2950.341970204472 -58.146220113497286 110 117 123
-857.3282986192319 -3180.494735337275 -114.0681992410465 130 153 128
-1628.1500303023463 -1950.082856293799 -91.71516140196799 233 230 228
-558.603235506781 -1092.4606043335743 -92.58373312893296 63 84 66
-555.2672209348817 -928.8567684788275 -92.35560119347888 52 68 60
-1111.7694640803795 -875.4768674306654 -68.66746780311328 135 141 154
-736.5434059756299 -1110.7434838388306 -94.98658255911421 46 62 65
-726.9838679633808 -865.5984435297364 -91.40377825794745 179 185 166
-523.4072085478956 -789.1228693335872 -92.89547951655861 100 131 97
-358.1913730658703 -763.6060127364553 -91.74693671627112 56 67 69
-593.7640275402453 -459.2005566488 -66.25712708280457 121 153 88
-910.1198255228356 -1304.035870129622 -100.55661377009457 151 149 144
-2576.7361354590244 -2991.296805638588 -62.2320600573903 140 155 130
-898.6377767689513 -1040.2927710889123 -92.80161924856337 155 174 138
-479.0374512883825 -537.6486577079535 -88.5837457555346 132 143 110
-604.3698151132987 -430.9891666798812 -67.22729167785691 40 52 49
-958.3847058171605 -900.4199986270243 -87.39212954547553 223 223 227
-440.3367121435198 -1046.7905846955025 -92.78548604828181 112 139 96
-690.4789877556686 -943.2062744047169 -87.18156352517536 103 124 89
-302.4388320101227 -878.8644231723952 -88.00076207394655 125 129 103
-2802.0558891420633 -2689.5926389411193 -13.519451132966863 54 75 106
-313.9748884337075 -987.2576240096068 -92.81170775813219 53 69 62
-1135.63935484964 -828.5771480322273 -58.654429389521496 187 187 191
-478.09561456589836 -568.3055394761864 -88.45350255635934 45 61 53
-531.8859576447942 -847.9182522686447 -90.44272299138295 105 138 83
-2014.3819382266454 -3167.0182937836707 -92.74924549843595 130 165 129
-564.9016037265638 -599.3978087039633 -77.35682504172192 90 116 77
-796.0439152277826 -1058.4579518426522 -89.85950025159627 150 171 117
-577.5926299416597 -479.861524865458 -72.42495977305823 30 46 42
-803.7097923264962 -1015.049489269818 -92.68649190169266 164 182 126
-626.9567324327908 -868.596896858178 -90.4489815445138 58 72 68
-863.7229226568402 -506.9540869650911 -48.42843564949292 136 172 95
-480.41241416929614 -756.3340038377127 -92.08644057068665 130 145 116
-932.0159508920058 -999.4262148147851 -80.84936116668621 218 225 232
-1543.3784797326864 -1448.5471276657952 -67.0802594239805 220 223 228
-498.13300991131075 -569.0487259499407 -90.36821254462096 42 56 58
-538.8351884068546 -484.29325285056046 -84.52271773331813 135 151 116
-473.63078605124025 -532.5086141494633 -87.39119863249907 128 143 107
-468.6256250174481 -671.694215027437 -90.84063727974365 131 140 106
-572.6398094891341 -1379.3687684626796 -108.80872267441615 119 123 112
-546.2279282348104 -843.8613498208699 -91.25366743551524 43 57 57
-988.821510731593 -3393.5649765779194 -119.83252109148665 75 94 97
-630.6897933757216 -881.0515101780393 -87.47161570632497 117 132 102
-325.71784840713633 -990.0410283005855 -84.7892094784133 122 157 100
-432.5458166073941 -686.7551809067329 -82.41068479468916 104 123 89
-641.2209637322322 -1155.4347200730178 -93.88769815759987 105 126 94
-352.87170961468655 -747.1988268780707 -90.55350411735553 151 145 136
-689.3325846747654 -1912.3187671939486 -116.2375595008232 245 244 244
-1106.8175027449813 -755.8602804518493 -49.97647673076751 241 241 236
-1447.5451887770714 -2611.3004823479564 -117.1690544957678 207 206 211
-521.7012453954931 -772.8883575772946 -91.30114072324204 125 142 105
-531.6888148906951 -781.1351679830722 -89.479925562322 115 145 95
-2785.030339990893 -2756.8030974064804 -15.077460602855634 234 238 240
-556.4986463670974 -547.5362731034256 -78.1233103185787 44 54 51
-342.543960798289 -1325.877516671736 -99.07642067368867 170 165 145
-760.0996148214822 -663.3806946191389 -77.78525120005523 140 156 123
-290.0472553336894 -819.6603438876697 -88.73596784082713 49 59 60
-1787.3998434775992 -2553.5838337970795 -83.25280811107193 132 155 129
-413.0092872161241 -678.1482776980608 -77.82704909370115 122 123 112
-516.09336601491 -1063.3502249026235 -100.13425616410052 50 64 64
-864.4351308764378 -645.1174121033558 -63.195246043247074 127 166 114
-453.40322311097617 -641.3981745203583 -93.10334118417177 108 125 89
-1897.9947765442355 -2617.3842191138056 -100.37076936354586 118 133 131
-478.3705097772505 -500.99397623429024 -87.75948762299312 138 155 113
-394.7135317998546 -640.5094307396131 -87.9934769771538 130 146 110
-1001.3081421556534 -2640.650538715656 -127.65516806007163 110 120 121
-627.7276855570948 -752.7178317994038 -81.59960029721358 125 161 92
-686.9049376080724 -805.2734827447074 -85.2834437459309 144 153 108
-1087.8363331264438 -1181.1796990313123 -92.23058345844152 215 209 174
-1187.329955502763 -1002.876998667249 -66.17663460571349 116 126 141
-557.7845882543176 -1059.4233759661408 -90.50431558387363 126 154 100
-972.480992952015 -1011.834493292263 -77.39031685600133 250 250 253
-1470.7928292673355 -3385.579430624136 -118.200609749476 94 105 108
-427.5756902723758 -679.6757483035004 -85.504038896619 51 60 59
-1359.391070397277 -2850.805717813814 -108.7020602954109 138 154 141
-1131.8640682555372 -3151.7329870725225 -115.81147400576853 89 111 101
-2282.848896273645 -4463.303606362569 -92.3476866287362 92 114 109
-1257.6120724621312 -1131.0356768730119 -72.39308749960512 112 121 138
-395.56137828364444 -520.8224922257123 -83.55520274221735 148 151 124
-377.1307056028621 -602.7746110215859 -90.86925221679509 124 135 108
-1510.8730842866091 -1802.2085141863197 -84.52804215989433 153 162 180
-2442.6211707704965 -2572.2438220703607 -41.4913678916114 94 110 142
-1228.5200498733725 -2452.4095722686443 -115.1498928313406 105 114 118
-505.103933975323 -882.6242173400532 -88.53816456061709 59 73 66
-489.29772029496127 -588.4035089820483 -89.42277579693004 124 138 104
-315.3091333364349 -817.2211992844692 -80.35314970713564 53 74 56
-558.0207860139161 -953.4564640251764 -90.12534394082628 42 59 56
-677.6707364827156 -716.126249363914 -89.95831112800325 62 70 68
-387.02288327669095 -610.2233200139219 -89.96877604292801 42 57 55
-1169.358306610543 -2638.28442114173 -121.65208518546561 226 222 212
-691.6941614997352 -1707.7419221632026 -112.51973158364744 146 165 131
-368.3041256940075 -595.1136876374012 -91.1103325722082 135 140 113
-365.6087818109112 -692.8318246477604 -83.1605301801838 107 141 78
-915.392246598408 -979.9833875585323 -80.6466706598904 58 72 82
-970.5012627882573 -1293.0816837950124 -97.87780866372911 106 122 108
-730.5272885662631 -554.5433410867911 -67.6561943847133 128 149 107
-548.087125496964 -509.2385635759143 -85.04750806443718 154 167 127
-525.3854505133801 -598.1891301604994 -86.50420081540464 94 120 79
-481.52319486443724 -1153.7192918684507 -93.99897929959731 49 65 63
-1143.6821470714733 -1254.9136736993346 -90.0385161127104 91 110 97
-807.267099918452 -650.2893585849265 -80.35675357082758 130 146 111
-568.7036254348652 -1323.9166838949704 -110.13124725081683 167 168 157
-3383.4386535404155 -5281.478896462459 -85.71309269688362 131 156 132
-563.3221236063546 -841.0215729096528 -93.38696847771526 122 152 98
-568.3982070066604 -917.1558233358239 -83.86991091508989 88 114 72
-1119.0364361163054 -743.1702283632472 -50.83983055149553 159 178 135
-645.0638069036818 -1729.8041427117748 -116.16973955433429 194 181 161
-751.5010380121406 -2024.7560615518776 -155.64628656584262 202 197 175
-470.07706553124626 -652.1388425971589 -91.78028632516077 92 112 84
-843.2966923230914 -3115.517053592584 -105.35148388773675 122 141 119
-1780.0219156239066 -2352.652414180676 -95.37326068416054 167 194 145
-940.0787351716413 -978.0106040841441 -72.54693048384777 226 229 235
-766.6972688532295 -532.5361189570868 -60.46678781993879 106 144 87
-343.08504396299617 -1071.1528150305203 -87.24061530743386 39 53 56
-967.5125445390976 -658.468298191634 -58.766329552714595 112 118 109
-1720.224961439461 -2640.036293905103 -83.79756784043643 143 166 138
-417.55854091395423 -621.6118807607328 -89.28090499551608 110 127 94
-1921.2413277980504 -2580.5591571659543 -111.16285706647658 210 210 211
-880.8078771914708 -551.3244897170107 -54.986994079410785 75 86 76
-480.3385909973117 -1009.140298597977 -90.80601643134227 45 64 58
-589.3278335001652 -919.729851470845 -95.05127252467548 103 129 86
-667.3583922300309 -733.6693979139047 -83.73102152056522 134 154 101
-338.7056239354789 -1034.5547248073792 -82.90351492995396 114 144 91
-1338.8845751022855 -4028.227175425583 -122.33365392222726 81 104 99
-1445.4013071333104 -2648.2108070612962 -101.85439574719531 206 195 178
-2824.5367912626284 -2684.891449049084 -12.1726835562433 48 72 101
-1713.265184077044 -2273.388056324395 -90.38997853315529 130 137 136
-500.07881647759984 -1116.827938026787 -87.96127541797883 53 76 61
-646.4078158004493 -799.688043219649 -86.16830630905525 152 165 130
-1200.0673217258254 -2595.3399389528063 -112.35472515614053 186 188 194
-538.9370744478606 -1379.6652764015168 -109.21787622211494 109 116 108
-577.4348050562858 -472.104295118139 -78.14789310157643 144 158 122
-386.2344822328679 -961.5780365496926 -95.33896402777899 62 75 68
-637.5951911329131 -724.4378103488101 -89.0912850896759 140 150 116
-874.1249976135286 -487.23106175942286 -38.46892036309394 129 156 97
-767.375329587765 -515.4804348631707 -63.92995735220382 115 153 84
-1433.95076272051 -1209.61666544586 -63.190477872423 180 180 183
-542.4127313838029 -769.5433844145383 -89.07238382422682 127 153 103
-723.7469530636821 -462.61276070757356 -63.00527779998395 29 45 45
-521.1459065024111 -1038.1862570268543 -97.23079808275811 98 128 79
-753.2636021714278 -846.7047222927547 -84.86284369574301 159 168 137
-2827.069441119038 -2789.6110842572198 -8.588728421477263 255 255 255
-397.70399234190694 -565.5595902901775 -84.21277954433968 121 142 104
-559.6441891027766 -881.8889509079529 -89.31476892561392 52 68 61
-2770.433217350006 -2502.048828107243 10.616188676608612 147 166 150
-1033.0786594293036 -678.3326528227076 -57.46448736326783 95 122 98
-561.7865361441549 -857.5784627274916 -84.20939517252327 130 167 91
-517.6340909027408 -529.3865865509406 -87.5047942402173 144 159 121
-596.637732463686 -439.83255751154365 -61.96334343439694 116 153 88
-688.9954727948304 -1923.7363005796615 -117.15786858071237 245 245 245
-3232.6255854043256 -3285.909141677949 -26.208723279208744 140 158 134
-668.0128777676783 -811.1715442540343 -86.93236910978682 148 157 120
-766.467770510758 -1065.0882049761697 -95.53357822148281 50 71 69
-386.3786779404269 -712.6963457961518 -91.25558399792062 141 164 114
-1421.123443849656 -1122.1876101790099 -52.271344346426524 207 207 212
-574.6707206616496 -1055.3981539242557 -95.2572419523937 116 135 105
-536.1879885727932 -841.8669023205773 -95.36465337152538 37 54 55
-482.7385154718502 -491.9922674076456 -86.23862728567644 91 114 77
-842.9675692065699 -484.98411056822613 -57.52557237944866 156 171 135
-1105.8976042840986 -2826.0863490376487 -117.05537370271249 131 159 130
-529.7008071568703 -1875.9016182198766 -114.15032993557759 222 217 207
-387.73041326175684 -685.8786013983174 -91.50456294688477 37 51 54
-907.4218538379426 -783.5726916290326 -77.54058853871516 163 174 149
-799.423481983004 -643.859432662583 -60.078935565147326 85 112 74
-1422.5566348819875 -1090.916625103154 -53.36591720232283 219 205 180
-860.7432614033517 -876.5630721184043 -82.05171706349364 56 71 75
-528.5622265651779 -667.6748517273345 -80.81191500138728 46 62 54
-836.1787942855611 -2004.1375509819609 -121.84887300797904 171 178 189
-375.8551530086925 -644.1352229641426 -91.598697288714 48 61 63
-306.9556547034209 -759.7352688302828 -76.39539361854233 52 70 59
-1125.5771884490118 -1291.0104562013926 -90.38484160924499 196 195 179
-878.1854763423319 -586.5381283720125 -61.06088906213436 46 67 57
-2117.0210327931927 -3823.921713867813 -93.41544398695262 144 150 147
-2634.5940807893885 -2807.72228720505 -46.90879108576016 110 143 122
-834.9991943940886 -600.1850184045041 -67.31642925266496 92 95 93
-983.5905091540067 -2079.678465474641 -116.77377467762726 227 222 219
-528.775310225462 -946.8419981235618 -92.77204872106373 117 152 95
-843.2966923230914 -3115.517053592584 -105.35148388773675 122 141 119
-931.9060679150404 -1259.0822005691396 -100.67809195463765 214 209 196
-550.7478371577882 -479.6755932792992 -81.25494145295383 133 146 113
-570.7389332395016 -503.7386942061718 -79.74244096672501 126 158 95
-481.44932244887383 -563.822334890894 -86.13999684623685 43 57 55
-501.07148662940324 -560.9017152382704 -84.08544608359985 60 71 65
-1134.3030410765366 -911.4089406173075 -63.740352373381384 241 242 246
-538.8351884068546 -484.29325285056046 -84.52271773331813 135 151 116
-998.0385032707555 -892.5671282031575 -76.21683022895968 230 234 241
-425.9075780123964 -612.1646761410781 -90.35890925132752 122 135 104
-735.9794833721627 -690.5864649161354 -62.15049635879042 84 112 74
-732.4126857230516 -641.0660340113913 -74.62649231494328 142 176 95
-488.604665148902 -835.6358459678606 -82.95079627183482 51 68 57
-713.4994688546111 -523.6008269558413 -78.16210324527017 105 106 102
-667.2064715600303 -710.0057633314971 -86.97076248025762 116 139 94
-1512.635060640263 -2845.9909729510446 -105.28688641267759 114 143 124
-638.7448833278303 -489.2798943688437 -75.97675523557693 137 131 113
-935.2952804104897 -589.8735726402941 -46.061169968464775 188 183 180
-2223.8014615522357 -2680.38031689199 -69.14827965138346 148 181 139
-555.7577849144211 -635.884163208191 -77.3009422048414 117 143 88
-2220.3005806260667 -2581.9935594145495 -68.71016313253207 154 192 136
-569.5856088328859 -843.2097359577542 -93.88182499630187 121 142 102
-2588.2774152996935 -2995.6326666859563 -47.528769658334795 154 178 142
-619.2566602232739 -1064.3411417164366 -93.24941872843388 39 58 59
-474.680455601644 -966.1136196170165 -97.12132710477475 121 153 102
-298.1730897256751 -714.1505800682331 -82.63642429130998 51 65 57
-2415.243775987702 -2521.3597693383576 -45.59641523298075 215 218 225
-611.2900361097238 -702.6662819182519 -77.68606851366981 131 151 104
-380.44315840723624 -607.4945676691716 -92.07876865787527 127 140 110
-474.0965683113058 -576.1021221592451 -86.71973556176361 117 141 91
-730.7470664032448 -436.45838725212616 -60.951960806432645 146 169 112
-725.8041168170779 -824.7231584095102 -86.52028545711094 147 156 121
-411.58284528615735 -595.404394984762 -88.43885393770746 129 140 107
-1923.9414404010927 -2652.3662419216807 -92.484096087663 60 76 92
-1102.1637865571024 -1079.514451675786 -80.34993605198412 182 182 187
-687.7501458653785 -721.815663945168 -87.1726221690593 46 58 68
-2161.768884570318 -2716.1303885716516 -71.39102493044774 218 219 224
-551.3684112018285 -1107.9644435768405 -99.61920341827589 80 107 85
-728.1357354996283 -639.8816388121148 -80.23030082285446 134 153 107
-320.77335710363974 -706.6233235087988 -91.610444600881 178 173 151
-606.7630560754654 -671.5700403863065 -85.90848604045217 104 131 83
-512.7993781455756 -837.9109920417391 -80.5238037797763 111 144 92
-440.44864037297776 -685.5035969685379 -90.21442278773509 34 46 50
-711.4837267483086 -991.0480630907883 -85.62545114997442 58 77 70
-738.6855039660405 -729.883057882584 -83.9605028238354 105 119 100
-1136.5960741005258 -2029.0296978879892 -108.2470913460918 231 225 220
-537.7238548755444 -770.8490755363121 -91.09063058965761 37 53 54
-308.02484118458887 -824.9298139001695 -87.20379427823582 118 142 98
-456.85771363080687 -685.5825564538882 -84.35565774184984 65 69 69
-1217.7922832105469 -872.2592321033885 -53.06851054432636 254 254 254
-645.7707849156446 -742.4314132361542 -85.12693124431934 154 146 136
-781.1725949918946 -523.7560821810571 -65.19937742362941 32 52 51
-393.5856194378308 -655.1191446577094 -86.05434249030985 167 163 130
-787.0250859818501 -420.00928912874275 -45.7012263036489 148 182 100
-1261.8075561622832 -1205.9350402627792 -75.34339237016489 194 189 162
-449.1324451267306 -869.2933920101786 -85.59824913515986 53 70 59
-711.9527113034833 -893.9746537106184 -89.92191306975842 39 58 62
-792.7965791470651 -434.93425672451474 -46.67087448252971 118 147 89
-601.5770230926389 -556.7168757148946 -74.56285766969525 101 116 80
-1136.5960741005258 -2029.0296978879892 -108.2470913460918 231 225 220
-938.2410286612172 -539.0518004929041 -43.718916039069114 186 182 171
