ply
format ascii 1.0
element vertex 695
property float x
property float y
property float z
property uchar diffuse_red
property uchar diffuse_green
property uchar diffuse_blue
end_header
-49.588404855761524 -653.4896826810556 -42.90378930627341 180 170 145
-110.49124570806843 -1346.4927418940276 -16.43086894839306 118 120 107
-239.98639658434016 -720.1878104149956 -49.71910191754384 130 164 107
-159.58316792213122 -942.8014400585846 -38.40237758315924 121 127 137
-150.5019912086095 -819.6953387148816 -37.8128926188598 86 111 74
-283.4223543444459 -884.544615060437 -47.146887974426754 146 150 159
-57.327343042563214 -1235.7306919872422 -16.860074904520175 138 159 116
-195.0522262202897 -911.2409615338041 -41.75532515143524 203 195 183
-629.0466151139376 -1124.841584927715 -52.81780872529872 173 171 150
-1534.2131976641997 -1801.1347707067168 -47.793486745127524 152 148 134
-870.8371385128916 -1796.1158885058094 -30.052766464465257 120 140 105
-166.48376942882842 -1212.2131053274777 -30.317627312846852 112 134 95
-327.87942357972594 -1117.460920918825 -42.75593163094782 249 249 251
-235.59417321180416 -795.5195655665665 -43.81560945035246 53 64 64
-1534.2131976641997 -1801.1347707067168 -47.793486745127524 152 148 134
-330.2509769964241 -1488.7586667113355 -22.102448574532428 118 150 118
-513.2858436937873 -1626.6610701993282 -17.852888231786977 77 99 82
-110.93273854716608 -800.081560152367 -40.140381230008956 163 156 147
-491.9377675554006 -877.9047126634634 -53.256332885060544 237 222 202
-158.40757242681912 -928.4558898648102 -42.493025454536 192 186 179
-450.16482582053965 -1093.9008665988233 -49.600366122353535 176 180 187
-480.71034986705286 -787.952379846578 -52.95076876120539 146 156 131
-1276.2679529589457 -1416.5808855748985 -53.42784789924391 68 82 85
-156.12261424801488 -620.7590105732079 -45.059549811574065 139 140 113
-248.80226009002118 -849.7250179507549 -45.188748508838046 195 190 168
-1115.65938402147 -1243.0707827851138 -56.1526985518093 70 81 84
-107.01900239468043 -701.99403562956 -39.0731790972534 32 46 45
-182.4676059758607 -658.1765009135341 -42.00073548667772 34 54 52
-337.97491590629 -1060.9072355833275 -41.61703750806792 228 228 229
-1321.0414818809215 -1759.1372982251683 -41.21504882430202 37 56 71
-202.54009432918022 -1020.6920519604464 -42.57509586314637 140 144 154
-56.173239470279356 -922.4783359624809 -34.70806113061959 143 159 112
-815.1437719529025 -1321.4965282624903 -49.37269693659671 55 75 80
-224.25228719239266 -1333.7741210950774 -26.82391033732781 53 72 73
-193.80427308263003 -980.3859099355259 -40.55187681678505 209 210 214
-87.34308796802296 -1274.811746539205 -16.029251209620035 42 58 62
-179.39734756884576 -804.1610364498637 -42.67968203470975 56 71 62
-225.20370997437786 -712.6472257688471 -48.02808163197942 110 145 92
-270.763049984376 -1309.3484865337302 -36.958799251903855 167 152 135
-644.8798344533953 -1111.601622612023 -58.11191129991733 227 226 226
-991.8196845903186 -1952.586329603 -13.711398158189423 107 128 102
-101.40845712573652 -828.6595611711265 -41.94833384358539 205 195 171
-41.4165038174809 -694.6378183624795 -39.24602910983132 137 152 114
54.66539393948332 -710.8641513449918 -33.4260359741439 166 153 120
-1378.189639267329 -1674.5545054409208 -50.89925251846683 60 76 79
3.331089653466307 -895.4251492942451 -26.770857165052615 165 159 140
35.43033714266047 -683.3524303692774 -30.385213338874642 36 44 46
-168.35772094946887 -1300.8405438433394 -27.590080460170988 134 157 120
-385.5734416248865 -910.131146861555 -50.40653908042967 230 219 203
-203.77800941320024 -609.3452063526163 -39.66220411612112 113 143 74
-391.87993972113026 -808.8282463548206 -51.93284734936113 115 147 106
-49.48011172980189 -818.8758875465318 -34.6928318728842 57 85 51
-283.60460693840105 -1510.1030550151265 -28.019723601078837 137 143 139
-819.639931237513 -1304.250294842973 -55.30103472454494 208 210 212
16.162292925793604 -797.0657190300903 -31.16413481093098 39 50 48
-279.1297763239796 -720.0230307201887 -44.70110007184255 80 116 64
-213.02373848461139 -623.1564019353164 -42.676392871783555 96 126 89
-769.1093226237653 -1052.4260759307585 -58.41893320322041 179 185 195
-163.06242848560126 -802.7957049600004 -42.96930057053053 68 70 70
-259.5756294673624 -848.5671049117648 -44.99280268218883 198 191 166
-306.9901480641796 -925.9546687282902 -46.0919535310444 150 153 163
-113.03712397694706 -619.342211614539 -43.02640344744832 181 170 132
-752.6075863204313 -1275.4298750091318 -51.441182831534086 109 127 112
-271.71198049116674 -801.8570382393851 -40.667103603600516 172 171 145
-236.0725836352183 -1515.8617875333164 -17.79864727011689 118 144 115
-143.91745574088878 -769.6776458584644 -40.522599578022735 199 186 171
-926.7730985713843 -2011.2568111991905 -17.002001336902886 113 143 98
-127.02445088862547 -660.9177026467227 -39.90659663594194 29 46 46
-1173.014131789688 -1756.1157660187291 -29.173373950302718 146 158 119
-114.37335360083935 -617.5228401770916 -44.96318028548937 69 71 69
-152.22168908649172 -1354.7488244990138 -25.097755323898525 148 145 135
-333.4127029536327 -1590.394397192464 -19.566887879220122 46 66 72
20.95089726959411 -790.3057185442472 -28.814084418798846 77 85 73
-690.9586287660552 -983.3196706465814 -54.84833121733872 240 228 207
-331.1956693195174 -880.7568662610907 -45.95032410333034 150 154 164
-14.698543635747253 -644.0834602958046 -37.986529954733726 36 40 42
-1913.742999540158 -1898.5662078040405 -49.1052179002758 103 126 104
-184.9584831226946 -1067.3167368962559 -37.17380052902399 213 209 202
-145.2802397102313 -619.0481915232158 -42.14450804658247 30 41 46
-240.28846327002276 -1785.5076696259744 -1.242297574796582 62 79 74
-479.29145057505593 -1165.286566717063 -47.797823627154784 138 163 121
-98.19067987095035 -711.4958833283818 -40.99073241784441 33 46 46
-671.3593801987464 -1009.3875549769099 -54.703875762078624 169 174 186
-340.06581891710977 -768.5225197930682 -46.32221901389033 36 55 57
-94.49901991155575 -691.3588392419581 -39.72839478177694 123 131 101
-450.51267629821797 -1096.1343205658684 -46.95192813057306 249 250 250
-221.27982883969233 -1079.7501254607703 -38.29033434012662 161 164 171
-502.89982560768306 -787.8029027272174 -52.721283707053985 96 87 91
-409.09867961628794 -764.9231041182487 -45.01109459342548 151 148 133
-365.1366106584845 -899.1551712075764 -49.04028348752475 131 137 147
-82.61816126804153 -1188.7187833780117 -24.395323615100924 114 134 97
-955.0080869692033 -1741.8609962790968 -33.99352375521037 69 81 82
-1056.7747156616751 -1257.2841522085828 -55.787597954455656 49 69 74
-196.96553612107007 -950.088247786357 -38.42987311866084 156 165 134
-8.056083510881175 -992.9855245108217 -27.892375698653534 133 158 109
-178.81510688360774 -1362.6552982717944 -24.269840284135615 145 143 139
-390.30855305906397 -1078.2936723445105 -46.592700857396224 227 228 232
-86.76502159230014 -1359.858755198705 -6.71837771962304 80 99 82
-140.1119013320789 -563.2604957569607 -42.224211518551314 183 171 138
-268.21007364188245 -1321.717188260277 -29.79531777056519 64 85 80
-334.5606985903462 -866.4672849970993 -49.925068656745474 230 216 195
-167.61123778816105 -789.5731418583725 -44.711596642992866 173 162 154
-133.61405755763275 -834.4047052267683 -40.60810286225947 120 148 96
-207.43408061204835 -858.6638585878379 -43.35325664588055 178 174 143
-816.9832136284592 -1275.8122246651715 -50.175159132147066 212 213 215
10.008074451833233 -724.7761537005089 -32.875824939887 59 69 58
-275.71507524288313 -835.1549769063562 -47.10190285865123 128 128 114
-692.9949781104742 -1371.5785562085846 -45.43665045004178 118 145 110
-470.8333344382428 -989.2212750032278 -51.316789102118065 103 108 111
-216.0786055735482 -1301.1676829822459 -30.24036835412862 61 81 73
-539.2006832432646 -864.718988551781 -53.77705175250572 228 210 191
-179.28053851353434 -907.5472178115541 -41.29240130023255 153 154 159
-1152.8561572468416 -1750.4311201318176 -34.12665318255324 42 62 68
-127.20654342526966 -551.7153358487699 -40.1040175473447 56 74 62
-1036.6123409240886 -1490.23963701773 -49.6750225130865 125 148 117
-288.16825686308556 -993.6217192469812 -41.59127899499032 198 189 181
-312.08276131552157 -680.9588845319897 -43.10781408545255 128 153 78
-48.33249818572973 -770.4027924451328 -32.78113066874002 45 57 51
-220.47129155906427 -767.7107491396662 -49.33008554566634 168 161 146
-278.872656326657 -1574.2206286160272 -8.695757916444887 120 139 114
-215.02808086180812 -1131.4059984919645 -36.466906436714055 123 127 137
-14.698543635747253 -644.0834602958046 -37.986529954733726 36 40 42
-1255.1352901647363 -1390.436876701217 -52.693845598654796 118 142 117
-16.96166376130417 -1002.8517759220089 -29.017912195987957 53 63 64
-291.3838324239704 -1134.4621891389988 -39.54998771738479 177 180 188
-296.864304546773 -855.2747215327703 -47.319498508440034 190 188 166
-475.6759971351365 -1291.6952083612914 -35.90370243051561 210 211 212
-16.96166376130417 -1002.8517759220089 -29.017912195987957 53 63 64
-350.9667362970804 -860.4026835892598 -49.7405539066171 206 200 187
-55.05282374415623 -623.0040084232082 -43.50241643485335 169 164 130
-996.248805710636 -1373.8233440710164 -63.35226753701651 174 184 167
-392.17601242642706 -1328.708554841172 -33.49898984695119 50 69 73
-1048.6432085395168 -1279.460256218752 -50.56463722209302 126 153 129
-587.3063595686176 -1105.9632441102444 -51.0784639838737 228 225 223
-148.40978768174205 -1358.8454671736947 -20.48481118477108 43 60 68
-116.85323176495189 -903.4108845189342 -38.224074542457416 142 161 111
-180.61773296107054 -752.4882931875106 -47.074891459553086 158 146 135
-279.5501449120026 -971.1589611176277 -41.54975085936074 147 149 157
-480.71034986705286 -787.952379846578 -52.95076876120539 146 156 131
-470.89237670961484 -830.0624744884428 -55.577293592346884 222 203 181
-30.406362964764643 -722.3745335083821 -38.647055982025805 101 119 86
-843.5417881850304 -1316.917546401203 -50.359129437325464 53 72 76
-202.96630430201517 -1491.5868623445997 -10.77432789100979 125 138 113
-203.1278317192001 -1319.3577073229383 -24.422735749357365 48 68 69
-489.79448804106653 -804.6030340981018 -54.32997573143519 193 177 147
-292.64118006226335 -856.9106633441686 -47.35709434203163 156 167 136
-225.09259116814098 -636.490641097922 -45.14554337444074 123 157 103
-1424.4241423971885 -1851.9841835349207 -35.422176933414505 117 132 114
-197.51315265071432 -721.1717988060985 -48.81539150593925 148 137 114
-157.97836964121925 -610.0576240477224 -43.31386133752092 34 50 50
-189.98875035910808 -1429.8551592948004 -23.462300321907424 48 62 73
11.33341908711219 -915.6546585690006 -29.1148575645872 112 129 93
-196.70684085300823 -922.2908873656737 -40.904815506153284 150 153 160
15.19330817880003 -916.0731498321461 -28.885450496573664 167 156 132
-338.8845719464586 -921.087749466964 -48.18953643075958 228 219 210
-356.25820012692515 -1619.3024329864024 -28.017604765507404 49 67 81
-289.2870565040735 -1295.9901917801315 -32.87577072108071 156 153 143
-113.02097253991361 -797.4134706431818 -42.652852424112645 186 179 160
-1052.248735195008 -1667.182139968797 -42.490143288704736 131 162 127
-66.22450735986642 -741.5267786519206 -37.64475184586182 134 131 108
-94.43520915208936 -1341.4780724727593 -13.72119291472145 76 99 81
-194.23492327703573 -858.7492052851364 -45.54689589375561 193 178 168
-229.58050845667157 -1171.6151486927772 -34.92818029959721 202 201 199
-288.8152530772969 -1680.7926741644708 -14.117495364054617 106 130 106
-736.7365115118013 -1285.5886280210452 -52.98948250360193 84 108 91
-479.7211486554223 -783.3378262849441 -54.61968715266737 130 136 117
-3.324297004277371 -837.6708862785825 -34.56290974649891 120 140 103
-309.07300952034495 -1340.4877439761406 -33.92176310015981 166 170 174
-153.03749277908312 -614.6482773499275 -43.96235645363707 38 52 47
-407.6863810963092 -1536.2459724920761 -21.155856876660515 54 77 78
-182.58754352550957 -688.6113926545082 -42.41620880061686 141 137 117
-350.9667362970804 -860.4026835892598 -49.7405539066171 206 200 187
-231.57515701350636 -750.9800466927819 -49.80402520114447 184 170 155
-551.7511574364655 -1018.1157808840755 -52.16747994079833 242 234 217
-276.38358416647077 -685.2733361705765 -48.83414017565404 102 124 92
-101.51641082730254 -843.2278577552266 -39.498717357583025 48 58 59
-581.4023863868917 -847.7170076238856 -52.45942184517142 232 219 198
-1292.057123176619 -1789.5662518963832 -39.88523952721452 46 67 70
-287.6233969237089 -873.8809274247669 -47.322525683965154 233 220 193
-892.6347785258346 -1303.326866725215 -54.97310502021614 60 79 81
-190.37388184509288 -1192.4335086365154 -33.491715681889225 130 160 110
-181.57239390721952 -899.7900671195264 -40.08819153064208 140 146 153
-71.09460467612776 -650.6200171408185 -37.7244414504684 119 141 84
52.73304326327896 -692.963998428687 -30.64673858732879 40 50 44
-130.49913491247517 -777.2246110460113 -43.19063979545985 70 76 69
7.667490595096561 -754.2244037143143 -37.33415445972167 45 51 53
-308.42805196302197 -1144.2823990546426 -40.88953907561116 185 190 197
-323.2579759740433 -924.9891582618349 -47.188260930094735 241 229 206
-429.9393950229129 -827.23026260033 -51.93931817590378 180 178 150
-225.7507837322557 -1301.1321275082014 -29.363573896628225 70 88 81
-393.9622677215511 -837.3339467320682 -47.225816495593186 219 214 205
-70.36533911195143 -677.0378265434248 -36.59298678079858 45 62 45
-837.7814420503479 -1519.5396090898253 -37.16909278750471 59 78 79
-170.66266932846705 -924.2295289571349 -42.11297688645506 143 146 152
-163.79000312122216 -992.6130494013942 -37.513285913402264 146 150 159
-147.4330365229092 -990.2541065086436 -38.27935640834454 161 159 132
-308.04019011125234 -879.9218435532863 -47.49780189277275 110 116 128
-269.4950928635125 -923.0071249047377 -45.59630866839314 117 122 135
-282.6235422905632 -850.3439391535996 -48.01350399401079 187 185 156
-375.78002457264995 -869.9860924020732 -50.902525402166205 125 131 143
-1088.9196365389337 -1752.1779905913058 -34.2592864774804 33 56 68
-286.1998544326551 -1266.199375236392 -33.80056088311323 176 172 148
-329.5819143209826 -962.5546925360062 -46.397940916607034 161 173 132
-268.2485462977302 -930.0212123746172 -43.89466798643095 120 124 135
-265.5292035670901 -732.9161543691574 -42.52745480836377 84 101 77
-360.55042510948385 -872.0672559780913 -50.132756822429855 112 118 131
-28.865655106174582 -784.5091382459457 -34.68348875449705 39 50 48
-222.52809420215064 -788.6791408298114 -44.4082939619226 128 151 105
-964.2228201091265 -1785.8323418179343 -22.637099441543185 148 166 120
-214.3801049256715 -914.971903629369 -46.59092905269513 157 157 158
-339.97114958804286 -1132.5828976751206 -41.395972095479706 174 179 186
-1368.3632296569062 -1533.9757023010898 -55.83131805868345 134 161 127
-184.9584831226946 -1067.3167368962559 -37.17380052902399 213 209 202
-493.7730373649577 -864.0893165604646 -54.39631058089806 122 129 143
65.38771397879157 -682.2473937711977 -27.135219760044837 34 40 43
-335.661549796303 -1157.4369332061062 -41.922951963594926 214 216 222
-766.5801128914002 -1095.1411392023965 -56.513910423686134 149 153 132
-471.76269872163994 -798.9553783938594 -53.46263763865388 103 88 91
-894.7069916881441 -1619.3482773260507 -31.911052274538044 118 139 121
-1728.8763372494482 -1856.4769247799431 -57.268189340630165 105 116 111
-954.0624167289963 -1260.9707534528425 -57.466655992066705 206 208 213
-225.7507837322557 -1301.1321275082014 -29.363573896628225 70 88 81
-1560.8435135623142 -1771.6784126406621 -52.810945593048245 124 153 125
-172.8608635596219 -908.094753139025 -44.89729153239612 175 175 177
-721.3427783627757 -1315.721573733938 -51.12309569378885 209 210 216
-130.07049627126923 -1490.6436256701165 -12.077378732503362 77 84 83
-1090.3858184242522 -1287.0051058207364 -51.04433980807954 117 139 117
-61.53432353572505 -910.7434566791969 -35.674602637427824 103 111 89
-156.76829664556846 -1300.916936456611 -21.58223712733211 42 61 64
-108.90688741417527 -620.1696206222413 -42.834410217232744 176 173 137
-189.26939909473813 -955.6499377139706 -39.80266620269717 234 226 209
-303.9393250379712 -871.5382549830581 -49.38813701701627 193 192 191
-632.5257905761312 -1678.9712449008266 -34.277295253075955 195 182 168
-308.42805196302197 -1144.2823990546426 -40.88953907561116 185 190 197
-416.53110276287447 -1512.2588573141616 -25.539153501986032 51 64 70
-514.7485436612347 -1561.4624402831018 -29.67705004473495 108 135 114
-395.3065690641659 -1193.424611388319 -41.32801948340733 159 182 136
-164.7727080061806 -813.3249090810077 -39.46915409259129 56 77 62
-1395.5891991180117 -1970.1274347747074 -30.830384272910823 115 145 101
-227.2342779173027 -906.2892591806362 -44.22618120569296 217 198 173
-306.04155646545405 -1047.4357992981822 -44.635354533259694 205 205 207
-170.48944469546453 -578.6368079196645 -42.66488903116303 165 158 130
-88.16827423236421 -849.1402503479281 -40.354483865427554 160 155 128
-498.0928344661752 -1081.1077926394735 -39.48922128047876 200 203 210
-607.1339235271869 -1361.709121971311 -40.99292806571 75 85 86
-787.5493960285916 -1282.8645697389961 -50.49767842075784 214 213 215
-569.7743150623506 -1140.0993407477165 -50.26679686414525 126 152 110
-381.86020802765086 -836.4700533203253 -53.061530919837764 166 151 130
-259.20829882517813 -874.2390652957066 -51.39264620487933 178 182 151
-692.1573921526997 -1331.1244448935633 -50.86682120328053 203 206 209
-1205.903379488081 -1758.4364786969377 -32.24058389560372 135 152 116
-206.36364011003712 -1533.3236667697481 -11.57988821769644 107 132 103
-249.8276473652235 -761.5251275211979 -41.07587451015709 127 148 100
-66.3244539893353 -641.183208007399 -43.49234026836698 181 169 137
-274.28602856351415 -669.332932934323 -47.41727980276717 180 169 154
-157.7235341689002 -807.8645685985433 -42.43198199067058 49 60 59
-32.918167577599284 -848.0923233679027 -33.80043093788781 155 149 132
-211.34801169731742 -1124.6087283934355 -36.99903859871257 127 133 141
-23.00289386698785 -787.3898418324864 -37.39181747323021 46 51 51
-336.76554368904516 -1039.849924595622 -43.81763688285556 140 143 155
-981.496319710834 -1411.945175376859 -53.328415334090046 108 129 106
-147.22756488923193 -956.5831800091971 -37.69964132526046 228 217 200
-533.2323503351244 -1639.3669813246152 -23.11267460113649 51 68 73
-143.74789701316985 -553.3114865215657 -41.25191371905787 167 167 128
-203.77800941320024 -609.3452063526163 -39.66220411612112 113 143 74
-452.0781353226698 -1362.2191220838336 -32.70214275116814 130 150 129
-256.80753909644284 -1531.5713783496824 -21.120112837376197 109 117 108
-8.252594095900726 -859.554566657614 -32.52797321195745 98 101 93
-231.93252605924593 -1155.8033739853345 -32.881783636570304 231 231 233
-240.76678635277182 -1556.0215880153414 -15.558434118960482 125 151 113
-267.24886729616594 -1390.6641202043425 -25.229593989876975 106 139 102
-279.5501449120026 -971.1589611176277 -41.54975085936074 147 149 157
-343.5525593083232 -1653.5199942627385 -16.595970673030816 115 138 106
-411.6416338219285 -1683.3898805341348 -18.948858815670715 114 139 111
-480.4563018510975 -1083.8752623628623 -48.03163416967432 155 159 170
-31.30866998520387 -934.2477418406036 -35.18753437032237 188 173 142
-197.85995052598514 -797.4575121552658 -41.77359389726756 151 158 121
-153.65307915923088 -1394.5506886556072 -13.802226431307929 49 68 70
0.3500560620206702 -749.5462099545807 -35.30179781396216 102 127 76
-202.8046959352957 -792.9545739245203 -37.55833211779629 48 61 68
-175.77236905918977 -660.3697722360223 -43.44516036786613 112 146 90
-274.83014421717775 -996.1370758234654 -42.47798343155493 168 173 135
-189.2529529817725 -768.2587664942406 -46.8833553015567 188 174 163
-1764.3397318153245 -1873.5962706972887 -49.89647234968862 137 164 132
-304.0785387115042 -1118.9303980306968 -39.47722796738673 192 195 204
-108.44270804255738 -636.8378271467759 -43.647859311764925 149 143 114
-72.33476539571352 -889.1499739056312 -36.14598660838947 173 165 157
-266.907205717318 -725.9741985243464 -50.5565003356465 133 135 115
-43.453165313957285 -639.8145496939252 -40.655392927925455 40 49 53
-869.2416005480771 -1140.9867708547201 -59.721175400956156 148 170 131
-189.60804778943978 -861.8532419397583 -46.02198806330579 70 70 67
-101.24553014717631 -1324.7916740401301 -22.167833220717768 155 146 130
-85.04211844456177 -742.2089670092017 -37.72063248972486 69 87 67
-256.80753909644284 -1531.5713783496824 -21.120112837376197 109 117 108
-85.39373926780887 -851.8501126019902 -36.19573716981463 42 52 55
-57.76462760663229 -708.6313961651372 -40.96032415408389 147 148 114
-103.69523947498749 -835.2761749762441 -39.75673866919953 160 155 132
-178.06808905033483 -1302.8887156754167 -22.69526546207771 50 67 69
-71.09460467612776 -650.6200171408185 -37.7244414504684 119 141 84
-760.9301435046627 -1032.356475784537 -47.048525840779746 201 203 212
-187.98069884766343 -1305.0830850732875 -26.55575831622363 126 158 113
-875.5577538307572 -1152.0957253368967 -56.664595751352316 155 151 142
-81.51266003757077 -857.4962394549149 -38.642146504034336 45 53 56
-66.22450745321618 -741.5267787772484 -37.64475147422736 134 131 108
-145.1649749821685 -602.7390411069679 -43.384645307280515 63 82 65
-208.0370955630772 -738.4374118937374 -47.903695069218195 181 166 160
-91.3144551873028 -791.4582073787174 -38.791062849469064 43 60 66
-502.7918210192459 -1673.0986647966822 -15.592233199263122 129 148 109
-147.54022945448244 -723.0701788016648 -39.80129632044461 176 160 148
-182.09336528827836 -951.8135796458712 -40.94647429642911 130 134 143
-378.56117382975157 -1267.4197469000792 -35.33206127990532 156 158 133
-396.15235912751626 -871.6798636585767 -50.039339713313915 119 125 135
-141.67846418426805 -894.7796973692974 -41.71428504136487 158 173 126
-214.75527945157978 -619.941684589689 -43.094405687643565 32 50 45
-258.6038339734381 -797.0248623985317 -41.55575792119426 42 59 56
-297.6092954378596 -692.2241682018666 -47.50350025098586 32 45 47
-427.2045449667098 -1100.28332334995 -45.83878113086862 250 250 252
-285.9699204006898 -1337.9491326016607 -30.10840900562282 171 174 179
-345.877022061458 -1304.2067905676183 -30.74812541744649 208 208 208
-191.30937673021575 -990.0043905745032 -39.689202999374054 109 113 124
-299.47361730494475 -674.520213127588 -48.81519017488339 204 195 174
-254.34507247233404 -1490.1100340954497 -29.688694268882966 40 57 69
-1292.057123176619 -1789.5662518963832 -39.88523952721452 46 67 70
-490.8825749501598 -1688.8714582473135 -22.79291536869086 112 135 109
-241.2522880958561 -774.1998096690529 -50.20807215757473 89 113 84
-1411.1569389688657 -1765.3769330286582 -48.89293491521501 131 155 131
-158.8057456910257 -623.6721001454326 -43.819611927971 33 47 50
-245.29051453318758 -710.6062513432353 -50.637064004659464 177 169 159
-189.93631490615505 -659.7579135511972 -43.07928231298403 130 147 103
-393.85935547908406 -902.4165143821234 -54.19640265194282 133 139 149
-217.75214588966003 -1066.1684905052155 -38.545499725818544 179 178 176
-196.96553612107007 -950.088247786357 -38.42987311866084 156 165 134
-293.17749333537444 -984.8658235597967 -42.87246421373071 123 127 140
-812.8925069168101 -1048.7532427996432 -56.10121431726408 225 227 231
-385.5734416248865 -910.131146861555 -50.40653908042967 230 219 203
-228.21192672291235 -635.2275566388375 -42.73084980919304 50 67 61
-4.695988224251755 -787.5639946274542 -34.278517887544744 118 139 101
-320.27773494035085 -1020.5495420749104 -44.16553134190767 153 156 168
-88.20588290430163 -619.4410448653881 -44.66413996358265 183 170 137
-566.0338810253725 -1351.9791229896878 -39.7567547545261 105 134 109
-323.6526880541159 -898.7313432723125 -46.084347635831904 128 134 145
-346.07016383551354 -940.2781536111961 -48.79458440875906 152 165 130
-216.02083597955033 -1466.2230021178016 -12.15832378921751 53 71 70
-207.4342361310063 -1262.6144896359554 -32.15260675914626 181 170 144
-268.21007364188245 -1321.717188260277 -29.79531777056519 64 85 80
-325.1505872498337 -1409.323970694957 -35.202982490813135 123 159 117
-292.3228920046226 -883.9366081205746 -47.49603386457701 131 137 147
-1704.4663234314894 -1864.656484006841 -58.905543216893825 93 110 103
-260.5306832732912 -668.7661138274793 -48.30402329112278 63 63 67
-277.5623883824475 -714.2260104108757 -46.24969790773903 37 51 52
-146.64348699868816 -825.0239272945553 -40.26243485145576 102 122 83
-262.73351134664546 -1069.1138019938721 -39.536693767932924 243 233 212
-121.96912567183321 -763.6638362253 -41.65214147452034 192 172 160
-331.62409846176007 -1500.9658426405729 -23.315506245135797 115 149 115
-286.6354923234451 -1057.3559286717082 -40.49707833713697 121 121 114
-1100.142194479939 -1361.2225946726076 -57.3581872337597 97 129 105
-78.15707808142363 -630.8973934713002 -43.004331614719 59 70 67
-220.21236824050564 -1676.2959625659798 -6.293892017041269 77 99 84
-360.2120121547853 -1166.1567140291595 -41.97742706141387 167 175 142
-507.30511395051354 -1352.055119647286 -34.46106826736093 128 156 124
-113.80670022548416 -626.8431705422443 -42.16614197263704 65 80 58
-94.04235492529217 -642.1897190281801 -41.66683813410877 51 57 56
-26.11147827228759 -735.7905882327736 -34.42586249905166 57 63 57
-334.5606985903462 -866.4672849970993 -49.925068656745474 230 216 195
-819.0583152515383 -1039.252772926547 -66.93955829867228 173 180 194
-604.9479669561341 -1710.481436583231 -45.39928781230897 107 126 96
-215.58608682761798 -1128.251491857659 -41.866590728484695 122 128 137
-216.87430041486638 -646.0558567474856 -42.318919711475516 64 73 68
-141.87107759484581 -609.9230205992827 -44.27753460068282 96 123 82
-7.838705749549062 -831.8186397106781 -33.076457676918416 189 172 146
-181.31355672340027 -729.5595589679792 -45.82656557226649 112 106 100
-655.4952231065016 -1463.909480365164 -34.17085665426211 124 129 121
-506.41477989414255 -864.075932847923 -54.97673962295326 148 152 160
-42.83474406379202 -772.4818051303974 -35.24412955089379 117 150 101
-458.1261647073174 -1356.9556276268413 -35.014794911637416 79 99 94
-249.0794779297484 -732.7951734679989 -45.12618157891961 40 50 51
-892.7512051489213 -1958.7742876038553 -29.207706750732438 141 149 128
-1287.9557963335963 -1800.1852815090685 -52.91432170873336 122 141 119
-141.67846418426805 -894.7796973692974 -41.71428504136487 158 173 126
-1292.057123176619 -1789.5662518963832 -39.88523952721452 46 67 70
-226.9443240377863 -651.8395492303505 -49.88010288700868 105 123 89
-122.10478449406459 -1346.3720940048468 -17.872438555955316 53 67 70
-26.11147827228759 -735.7905882327736 -34.42586249905166 57 63 57
-94.65606983118288 -1324.9174819741922 -21.812771853433574 162 154 139
-160.63374155935003 -562.0516223036539 -42.47125483924704 180 172 137
-1321.0414818809215 -1759.1372982251683 -41.21504882430202 37 56 71
-750.4616080368784 -1286.1452586523048 -48.002179828981575 211 210 211
-106.54515477467463 -579.4689873717044 -42.26361005700224 130 159 109
-73.14097806395023 -863.3354016769456 -37.01267301677773 41 51 53
-422.39950271900165 -1059.8776014493783 -46.238378359383624 134 140 153
-297.1106471153648 -852.0941007609194 -49.30498312454313 170 170 141
-107.22114998931777 -575.6211012208104 -42.6774831501668 37 54 53
-167.6188663343525 -620.6755823663341 -43.91066087661105 72 86 72
-224.4050001870563 -929.5745198479151 -43.47383461155736 230 223 209
-1839.1688234615735 -1853.2430150903983 -55.23374463186227 61 79 84
-307.18393601246555 -670.8089839618946 -43.21849596697289 50 56 60
-989.4615693092826 -1429.3292205488906 -49.91401030818983 137 160 123
-297.981696820938 -681.5787381655309 -42.51082205010253 27 42 47
-384.14602066099815 -1682.7799941016053 -18.384232211895316 121 140 113
-131.23284519925005 -633.5898767747309 -44.82314694016135 130 137 108
-61.31500001973187 -617.5151229202988 -42.401589413785 53 60 61
-1073.779812781247 -1321.7965497664343 -46.59229503398932 119 145 109
-1100.514655695803 -1252.968438856816 -48.91320857797052 95 120 107
-735.1246016895483 -1075.5074915883827 -55.6386352372569 232 227 220
-412.49832632135906 -1022.4303836348173 -38.00538544767983 207 209 213
-456.97301225009943 -1486.2999797471693 -32.557412613240075 68 80 82
-207.62699821589172 -1328.2360095002161 -19.02874195302139 71 91 85
-306.2031354714437 -1346.164011035279 -31.404475308805274 74 94 87
-239.72364840950942 -1835.7549112352785 -6.119776632829879 77 85 92
-193.4752152598534 -954.3924973490987 -40.95309900628513 232 221 208
-181.31355672340027 -729.5595589679792 -45.82656557226649 112 106 100
-166.48376942882842 -1212.2131053274777 -30.317627312846852 112 134 95
-619.7478507511976 -1553.3714555601719 -33.09105796926059 120 152 112
-304.00826522411563 -1309.2312695240435 -30.88543519923672 75 99 89
-415.66089349750024 -1327.9302875843405 -34.59760737331127 73 99 92
-598.8358463795672 -1008.3762793744271 -54.088971701963146 236 229 215
-135.80239021510937 -577.5347291668361 -43.48320541191114 85 95 85
-53.61568575216545 -781.8688570182006 -32.50865529919998 40 50 51
-486.5038271014041 -1131.7008573102949 -48.50287218720972 225 224 225
-434.6231525075927 -1809.9212747751283 -15.437607399727252 45 66 69
-353.76025546592933 -1035.4634033175694 -44.32493471462209 232 222 208
-411.21489986276254 -1288.279836631087 -37.29515752717127 96 123 100
-464.5888310355888 -1290.9411231566312 -40.944750529048925 117 141 122
-244.13790370953507 -595.9570610491148 -39.36130969586629 102 137 86
-1463.1959044393366 -1797.8121727817816 -42.57489794300416 57 73 77
-249.47392213109126 -844.6692197529242 -47.32168511093821 96 112 88
-237.86674059544558 -1297.846836409878 -32.407031228478125 179 164 139
0.5723350476877257 -862.0373778539794 -31.839606788986934 84 105 83
-158.40757242681912 -928.4558898648102 -42.493025454536 192 186 179
-90.09857093299742 -785.3902007814996 -39.664223380105526 55 71 62
-124.98647123614988 -1337.0002584996741 -26.304208550025564 151 153 148
-95.43448885860097 -588.0009503080098 -43.736231889783355 75 92 68
-837.7814420503479 -1519.5396090898253 -37.16909278750471 59 78 79
-255.21094870925776 -885.8876628883598 -44.87970103486679 139 145 153
-388.5949441512651 -876.2968898947952 -50.890568674316235 169 166 165
-142.10302488618171 -881.3509563478532 -40.42558098092582 115 142 100
-182.22679091477664 -1344.3068322030301 -24.164488236189364 127 140 120
-154.45080242547263 -951.8672026919749 -38.47211953981382 134 138 147
-1088.9196365389337 -1752.1779905913058 -34.2592864774804 33 56 68
-131.96543630444944 -602.6071137488744 -43.26736295149576 71 90 64
-188.41431930291262 -1510.5054825780308 -12.062439317534851 82 104 91
-291.6772699292566 -748.0748044132354 -42.309221267742416 127 151 97
-154.0736561890638 -625.0166720774099 -43.64618787823755 144 144 116
-159.6280502801912 -802.2838086802526 -44.43031759730999 179 168 153
-1824.3545310110428 -1864.6849084903754 -55.91045120361608 62 82 87
-202.47437260117397 -873.1301085449645 -45.22601324199676 128 155 112
-134.43250023088024 -612.5048537887374 -44.881929301941916 188 177 139
-82.48201185858494 -851.9939286258104 -39.227213931918534 158 152 127
-638.0172197472928 -1151.7197724543453 -56.8481904647937 142 167 123
-94.49901991155575 -691.3588392419581 -39.72839478177694 123 131 101
-76.05448625532624 -649.5724020947202 -41.173749933246285 40 50 52
-206.5697578270155 -926.8129623508995 -41.21616392060161 217 202 190
-156.12261424801488 -620.7590105732079 -45.059549811574065 139 140 113
34.70906941224317 -742.8758322668285 -33.12492316381773 149 141 110
-18.929883450955455 -764.8475924169308 -34.12427171866297 115 137 94
-210.01013759880288 -871.6073956930035 -42.54458565121602 186 184 147
-336.47781790197104 -695.7947294668172 -45.80143525887167 94 112 82
-89.5699430041508 -613.0435795782201 -43.03362409981751 135 154 106
-56.69518934640642 -854.6421550668069 -34.21508303062815 107 130 94
-388.5949441512651 -876.2968898947952 -50.890568674316235 169 166 165
-108.50840190124448 -599.9417432649456 -44.057808126684336 156 160 122
-430.4189097842943 -1120.4913703312518 -40.952099764237246 218 219 224
-248.1061721853411 -822.9284904400826 -45.66762587133747 137 147 123
-146.96598880357615 -647.0480515976013 -44.67991051474483 37 45 47
-272.49906741908785 -721.3595243767088 -46.74868845971851 47 60 57
-141.41889223869939 -788.3057954842477 -42.99645883569201 183 169 153
-273.08641252427714 -879.2408872845402 -48.00263818960837 207 205 200
-288.0994461974039 -917.582582925405 -45.404571602486236 132 138 148
-16.039196690430792 -735.089741215449 -38.09405797860263 134 138 105
-128.15978541514804 -826.0240486363102 -39.69163956258518 48 59 58
-883.6902686046657 -1306.2682188517051 -61.399733729659125 200 203 207
-158.8057456910257 -623.6721001454326 -43.819611927971 33 47 50
-440.9035411033804 -828.3223028559809 -53.15768714579307 171 172 144
-263.0939825550112 -936.9992121207026 -44.935882589982775 158 161 166
-1144.914332735017 -1753.5447769749355 -27.47350578644487 128 152 112
-466.17641259822835 -1115.5322888919009 -50.647057690500624 196 198 203
-15.748921454702351 -807.2919777182868 -34.04296111022475 88 86 75
-548.7891059236194 -1155.7789315870461 -49.634947277851026 131 161 111
-663.3570776665238 -971.4198536497188 -57.528932528392076 167 164 138
-1473.5939886973208 -1776.2840241434144 -43.23156479333981 46 62 75
-310.57591562385073 -1058.7650732893094 -41.576063641590856 155 158 168
-252.11515422581968 -736.5063077181155 -42.841986905477555 40 52 52
-179.65897633184517 -624.8169204523141 -40.64135433313161 122 129 113
-78.29144102251892 -1267.3760636740005 -18.68872747295554 43 63 64
-310.4506877254866 -1307.3915629109215 -36.28418916432063 151 155 130
-194.83916203803855 -1092.4338736636764 -39.37988449705734 195 198 203
-752.9877225225747 -1317.9676966419265 -53.062634711416365 198 199 205
-105.68697570085976 -632.1817006592665 -43.75450241653961 51 57 59
-424.91712476079005 -832.3945352053387 -52.52803393441738 150 146 133
-129.1824042814005 -626.5587938878352 -43.236059444281445 138 152 115
-268.58338060132735 -724.5150530732307 -42.113288360458554 118 149 87
-52.25820857942888 -660.4488089268935 -40.706675162887436 56 73 61
-101.1478445763196 -819.6624507139979 -39.54921106326439 201 187 171
-166.15071366199072 -1306.6942225172377 -21.343047588827048 60 76 75
-228.7701897934417 -1028.6739512445672 -39.45646491546363 190 184 152
11.678031356771351 -786.7141923599555 -31.88544775365471 79 104 69
-163.90755443143698 -1030.613259504112 -38.54096730270423 158 164 129
-113.01743931329474 -804.847223924424 -39.68455562556854 193 182 173
-231.95659295871863 -853.250450180191 -44.651437663295425 179 178 155
-87.46657604088035 -599.4618323556706 -42.45828591231226 138 153 113
-203.97201798533226 -794.6400112686425 -44.1848183360269 63 82 64
-103.10512451369212 -603.1775265343294 -45.09179027752638 159 149 122
-94.62875718795293 -850.9130297762554 -39.30791357948331 72 85 74
-875.4504116181093 -1338.9161380445769 -46.13506896789795 65 86 89
-88.56360272942375 -651.7222815143699 -42.79021015902184 140 135 115
-59.83231328432732 -1079.0154992147804 -28.34676392522568 128 140 102
-129.96331476983065 -1352.1268022499776 -13.22037078766521 53 66 72
-399.80739696219 -889.6951561180849 -51.119291827872345 123 126 138
-398.35016805566266 -1331.4616303298897 -30.60338403847003 144 158 143
-279.14815599479675 -989.5734652800792 -41.249568442710235 143 134 103
-129.0742602729683 -571.8963283616786 -42.958334018419606 191 180 148
-22.414095426666556 -905.892937423027 -33.73112771736557 201 190 170
-159.50358037204077 -1372.2178327414445 -22.102195417464042 59 73 81
-260.5619265732802 -785.7374181399612 -43.602865555290705 56 63 63
-102.48777952245099 -641.0517767352213 -42.495764965852 146 152 123
-96.81499612533457 -615.6992524204676 -43.29846864157211 186 174 137
-172.72176802297702 -636.2101389418034 -44.1926027039976 80 98 72
-1159.332037479378 -1624.6138367717751 -41.01752608459174 126 156 114
-932.9893286161498 -1143.493113654161 -58.379631591401186 147 143 139
-364.8692682355446 -851.4663982148024 -49.4217758202214 228 221 207
-107.29113826142951 -844.3069352465059 -40.12182165725161 62 72 68
-706.3783255866501 -1114.045131285779 -56.52256167232797 155 159 137
-817.9364647385079 -1026.9670835142738 -52.39807928451145 252 252 254
-523.900335534163 -1153.3900897306921 -51.12867385807849 128 142 114
-81.11048360688207 -732.4557496410093 -37.527475092019195 101 126 80
-736.7365115118013 -1285.5886280210452 -52.98948250360193 84 108 91
-336.16684353787616 -1299.881345170832 -33.917558520929504 86 104 99
-371.8674173546474 -1690.5430216556122 -17.27333832719818 55 74 76
-224.73017798061676 -1308.8514883362611 -25.948750299314174 133 165 116
-412.2774701617461 -818.5229196048723 -54.057933970106255 96 86 88
-850.2995196337026 -1238.465134333587 -44.44128291995049 214 213 214
-395.44308245821344 -781.5398143327611 -46.55726723881091 155 168 146
-656.0906645018366 -1101.792537469361 -55.18845148901713 222 221 223
-241.5850654333727 -744.9037667052128 -50.4374893548187 166 157 144
-160.43310081628013 -606.2565392539158 -46.12455014900053 176 163 133
-311.51320978601336 -919.4437872093699 -48.78938828164696 140 144 155
-1173.014131789688 -1756.1157660187291 -29.173373950302718 146 158 119
-352.63803131813125 -1332.78619585704 -36.45472357687037 201 204 206
-891.9606449453892 -1252.3463339341365 -60.569580638440115 157 168 142
-101.66516209272869 -643.0182925422583 -39.840960917643265 76 81 68
-798.8564615549627 -1314.0609942996757 -55.544701251314684 201 204 208
-425.99167607309573 -810.8211562591791 -52.15305488474708 94 85 87
-85.96978383502625 -644.1409687963159 -43.73831447076131 185 171 142
-343.2771427178803 -681.083216768281 -45.206531489192244 24 39 44
-480.4563018510975 -1083.8752623628623 -48.03163416967432 155 159 170
-522.6923142841512 -1576.4003617558358 -24.836847251716712 68 88 80
-291.10246151937974 -1468.6024834664465 -26.998649222712366 160 163 146
-324.9001239562044 -1185.5237184778443 -39.78058988262713 135 158 119
-909.5629359832758 -1295.183917281391 -53.802135123276955 65 88 86
-101.88826328990564 -710.587579877407 -39.60969630162128 107 122 84
-384.75344828181625 -791.1432535059372 -48.31962582340466 128 143 113
-76.39346935061869 -906.4503350146234 -38.097115208688756 181 173 161
-122.42858430676765 -774.1610751015999 -42.32189337773695 52 58 58
-350.60899130091656 -1531.0638514842788 -22.6017375519206 98 131 105
-288.21091582393916 -1367.2762774139153 -27.539870943197474 97 125 94
-135.39984005271168 -774.3975572923731 -44.16937968436102 169 151 141
-109.48399147954525 -1350.2578283390171 -13.26971024865408 45 62 63
-250.60513522269358 -741.1264313096339 -44.55056534063145 100 123 79
-423.7664857281008 -780.7218175678627 -49.506062604207074 150 166 129
-260.33683920804566 -1517.7033148330972 -16.025218811221787 113 147 104
-54.71648523640145 -633.7891061959344 -43.11417503102414 183 173 142
-476.2532018853974 -869.5597421366615 -53.019185010206456 132 139 150
-287.9668845088409 -1009.5736260381191 -42.01855394108266 157 149 122
-410.6868148685817 -1058.5950647281115 -50.62084733020529 208 210 215
-69.31588375736183 -895.0320649004275 -37.28465314569211 189 186 181
-867.3044312215072 -1451.2648102390758 -43.520109445921435 132 145 122
-145.37859237909694 -1295.6520308724973 -22.354343064949905 49 68 70
-204.58492713233753 -823.7303847382942 -44.50414017086311 132 158 109
-99.45060253625027 -892.4627247659819 -40.26030548611062 172 161 137
-154.43922993282902 -850.3463294030744 -43.04690019956428 114 137 100
-338.8925526914047 -1053.559416765091 -43.42304026137016 147 153 162
-107.45362451835965 -846.1430779535642 -35.739971886795935 152 152 128
-324.6071140797646 -1096.8611244406777 -39.9079727206677 187 191 200
-269.4950928635125 -923.0071249047377 -45.59630866839314 117 122 135
-339.64893762594073 -847.6756482715342 -54.57728366936981 151 142 138
-25.734800583229475 -941.1458113714347 -33.623293195009644 100 100 88
-507.64042951419765 -1528.519344396569 -32.51838971499675 181 175 167
-136.08347530917854 -1295.2403577015277 -19.34727481768496 44 63 64
-375.15089850651833 -829.3188033100405 -53.497921246254634 90 79 84
-73.14097806395023 -863.3354016769456 -37.01267301677773 41 51 53
-87.34308796802296 -1274.811746539205 -16.029251209620035 42 58 62
-76.20032141813076 -736.4183386263508 -36.67493751523355 33 45 46
-266.45849775200384 -730.275255437439 -49.19033082955449 36 50 51
-442.7497293377077 -1077.4919078868668 -47.29951133669979 250 250 252
-314.1641926399663 -1117.0930067776503 -39.694552139361846 227 228 231
-380.0804697631739 -855.0091727821912 -51.248746382478544 243 232 205
-303.8726458890327 -1146.834595138678 -36.912667067484065 221 221 223
-177.92426708085975 -880.239543814261 -41.63144906618506 149 159 122
-1250.9324672181492 -1695.7209505998346 -50.96690615354746 132 166 129
-299.73585882442165 -1580.9628282067197 -15.540763711997375 109 138 107
69.82501659310411 -682.7822750761429 -29.64782697349648 58 60 59
-360.96404109680026 -1202.4077483772385 -39.87994184565186 134 159 116
-18.59529841290712 -989.9110542317987 -28.48310656313775 152 138 105
-81.27640892654416 -634.3677342927947 -42.75576024538214 176 165 133
-453.9378192257787 -859.7953416917968 -51.4755383481437 183 180 168
-220.61820461352957 -1032.5209137652948 -40.660145802407456 155 151 128
-470.8980817650673 -806.2070155308646 -55.7801766544109 101 88 90
-70.07386922816528 -604.0247926446815 -43.4518649354414 167 163 132
-265.4873795431746 -659.0747567315328 -48.53433601610765 204 189 175
-160.43310081628013 -606.2565392539158 -46.12455014900053 176 163 133
-243.3793536285332 -1183.327392018803 -35.8832180878767 151 167 130
-342.57828066765944 -1032.9558201991117 -43.29696686923655 155 158 170
-197.85995052598514 -797.4575121552658 -41.77359389726756 151 158 121
-18.59529841290712 -989.9110542317987 -28.48310656313775 152 138 105
-27.348241106258246 -762.6023620029919 -37.58224757602041 137 142 105
-581.8248889136644 -1676.06907925265 -17.435838984684434 39 56 67
-961.5007939437309 -1580.510940081356 -42.82281154941506 137 163 132
-635.3876329923593 -1675.5210310094992 -31.543053112512254 128 137 119
-105.84690870804775 -642.3705450508504 -39.20342492817008 45 54 50
-480.7743831418249 -1071.0894095244623 -48.371845011696635 199 200 205
-275.57219292305 -965.8931986880727 -43.41809913835265 234 224 207
-27.215966410941927 -958.2152239335699 -31.902229264908954 178 168 140
-1176.161924390064 -1747.8392326835983 -36.083055630633375 54 73 73
-183.06584008313015 -1268.807127562998 -30.10585825994882 179 170 145
-331.11574036099415 -705.9357988543541 -44.056589999457024 130 162 108
-232.62310473195438 -1772.344458588098 -8.028542354483797 179 178 174
-400.95131578433364 -819.7687654838688 -52.8249812048172 100 85 88
-808.4408107405037 -1278.1309095681956 -56.7083760194193 148 160 139
-145.9559282908897 -576.3647396264859 -43.64405201824023 195 182 147
-311.67093981919703 -841.0503682065466 -50.38336795874757 107 103 92
-147.55762796591628 -789.5451028965356 -40.4252635345929 162 148 139
-439.38828102769133 -778.8220367702654 -49.2064980926237 185 180 159
-110.09506660958479 -583.1707775779882 -42.04170360182419 38 52 49
-43.96628134050508 -712.1508128838228 -37.00852934669659 61 69 63
-261.61703581001194 -699.1646359235584 -52.76943483533869 131 175 109
-110.49124570806843 -1346.4927418940276 -16.43086894839306 118 120 107
-529.6354433183302 -1800.2738206975623 -22.397925740005952 81 100 97
-336.46126620241057 -1142.5330796917283 -40.858250940683725 250 250 252
-880.9043122728905 -1356.7954516812708 -53.18476202816163 132 137 122
-150.6019302955909 -766.3772519231012 -45.37227350197878 206 188 180
-6.1882445618440665 -864.2138328862751 -32.73706775943337 181 175 154
-403.2573172359659 -1323.9575456208388 -37.737481984302484 198 201 204
-224.4050001454872 -929.5745197932281 -43.473834777307864 230 223 209
-469.00935893589224 -1483.710369356925 -30.683922704328012 189 176 151
-276.24227289511765 -1298.6008001116284 -33.79691449541362 56 67 69
-147.22756473805893 -956.5831798103683 -37.69964193054432 228 217 200
35.43033714266047 -683.3524303692774 -30.385213338874642 36 44 46
-146.47925240753264 -1393.513310327462 -11.114656310752403 98 124 98
-1167.8180051982367 -1714.605346632197 -47.545841582378834 129 158 124
-1312.99291269962 -1687.345733395984 -46.787005428265985 136 160 130
-445.1685114472803 -820.409258944918 -54.24587486062909 181 172 150
-115.1227340880546 -745.0796632919527 -41.145149700656624 35 48 50
354.2360088153103 -243.01497036902708 332.9704878993432 255 0 0
354.0544419531242 -242.88742838984228 332.9827040423877 255 0 0
353.872875090938 -242.75988641065746 332.99492018543225 255 0 0
353.6913082287519 -242.63234443147266 333.00713632847675 255 0 0
353.5097413665657 -242.50480245228786 333.01935247152124 255 0 0
353.3281745043796 -242.37726047310306 333.0315686145658 255 0 0
353.14660764219343 -242.24971849391824 333.0437847576103 255 0 0
352.9650407800073 -242.12217651473344 333.0560009006548 255 0 0
352.7834739178212 -241.99463453554864 333.0682170436993 255 0 0
352.601907055635 -241.86709255636381 333.08043318674385 255 0 0
354.2360088153103 -243.01497036902708 332.9704878993432 0 255 0
354.2759776316368 -242.93845813191612 332.7657170827137 0 255 0
354.3159464479633 -242.8619458948052 332.56094626608416 0 255 0
354.3559152642898 -242.78543365769423 332.35617544945467 0 255 0
354.3958840806164 -242.70892142058327 332.1514046328251 0 255 0
354.4358528969429 -242.63240918347233 331.94663381619563 0 255 0
354.4758217132694 -242.55589694636137 331.74186299956614 0 255 0
354.5157905295959 -242.4793847092504 331.5370921829366 0 255 0
354.5557593459224 -242.40287247213948 331.3323213663071 0 255 0
354.5957281622489 -242.32636023502852 331.1275505496776 0 255 0
354.2360088153103 -243.01497036902708 332.9704878993432 0 0 255
354.1142767968159 -243.18008135342026 332.8850338499635 0 0 255
353.99254477832153 -243.34519233781342 332.7995798005839 0 0 255
353.8708127598271 -243.5103033222066 332.7141257512042 0 0 255
353.7490807413327 -243.67541430659978 332.62867170182454 0 0 255
353.62734872283835 -243.84052529099296 332.5432176524449 0 0 255
353.50561670434394 -244.0056362753861 332.45776360306525 0 0 255
353.3838846858496 -244.1707472597793 332.37230955368557 0 0 255
353.26215266735517 -244.33585824417247 332.28685550430595 0 0 255
353.14042064886075 -244.50096922856565 332.20140145492627 0 0 255
222.4102938038975 -151.6499928308126 330.00903642542437 255 0 0
222.22728865011004 -151.52436664630451 330.01951934021713 255 0 0
222.0442834963226 -151.39874046179642 330.03000225500995 255 0 0
221.86127834253514 -151.27311427728833 330.0404851698027 255 0 0
221.67827318874768 -151.14748809278024 330.0509680845955 255 0 0
221.49526803496025 -151.02186190827214 330.0614509993883 255 0 0
221.31226288117279 -150.89623572376405 330.07193391418105 255 0 0
221.12925772738532 -150.77060953925596 330.08241682897386 255 0 0
220.9462525735979 -150.6449833547479 330.0928997437666 255 0 0
220.76324741981043 -150.5193571702398 330.10338265855944 255 0 0
222.4102938038975 -151.6499928308126 330.00903642542437 0 255 0
222.45029348493318 -151.57460220712792 329.8038560281471 0 255 0
222.49029316596886 -151.49921158344324 329.5986756308698 0 255 0
222.53029284700457 -151.42382095975856 329.39349523359255 0 255 0
222.57029252804026 -151.34843033607387 329.18831483631527 0 255 0
222.61029220907594 -151.2730397123892 328.983134439038 0 255 0
222.65029189011162 -151.1976490887045 328.7779540417607 0 255 0
222.69029157114733 -151.12225846501983 328.57277364448345 0 255 0
222.730291252183 -151.04686784133511 328.3675932472062 0 255 0
222.7702909332187 -150.97147721765043 328.1624128499289 0 255 0
222.4102938038975 -151.6499928308126 330.00903642542437 0 0 255
222.29074525621223 -151.81707673690698 329.92433796546214 0 0 255
222.17119670852696 -151.98416064300136 329.8396395055 0 0 255
