ply
format ascii 1.0
element vertex 134
property float x
property float y
property float z
property uchar diffuse_red
property uchar diffuse_green
property uchar diffuse_blue
end_header
1153.8497533372329 484.3997376786438 -14.445835644920363 166 157 155
1258.5362300343386 445.3548800090694 -33.490007216267614 158 157 170
1162.1560015993746 483.820500177498 -15.710138079250259 250 248 250
1092.6849561896927 513.7397933190986 -4.181658468039073 255 254 255
1228.7636937098364 454.6221266370958 -29.837524546522584 231 229 230
1168.6810241041364 366.28424912516573 -21.528514395933815 113 120 140
1184.6058356143803 377.63526829926934 -23.258772246532722 132 139 158
1108.0239772954576 463.4392432472606 -3.86625125401939 208 199 193
1203.0488939257784 483.2930340849659 -29.84481322009092 208 193 186
1094.3495104414646 423.0779517593301 -9.508925018868988 219 209 171
1160.393472495332 416.48639973807116 -17.691530915940916 165 181 141
1250.1817659070755 426.2708778346037 -30.438453209722635 126 137 159
1112.0228970352125 463.04335792953805 -4.831985596123402 117 129 124
1258.5250557734253 448.5835064534253 -30.62353882651896 99 116 114
1189.9389855027393 450.11832095003945 -23.084421607745554 203 197 177
1121.431279536334 313.33226284101835 -15.369794490842963 119 124 137
1140.6420693966206 477.98058954796255 -14.515305880680932 214 203 201
1238.5749764110678 427.80740369377276 -27.70071873263527 247 246 247
1109.9066967989115 456.2676116261578 -7.548228357803756 98 116 113
1154.0401798281755 401.0264106543196 -16.75613724883674 136 145 131
1170.3318733793608 445.57547685672597 -20.17419761812715 248 238 229
1125.6552078365196 469.5715598035809 -11.343912227882182 174 170 168
1209.2684494893435 492.92588719128116 -30.78301264579266 114 122 142
1148.8291190500772 465.57958283151777 -16.92036649089565 138 159 129
1149.9474211619822 462.6541362201845 -18.858712336061096 162 154 158
1182.858712414963 455.025053943975 -22.547803584469687 234 223 219
1063.3746116963262 461.0328907976293 -2.644376950916934 110 120 110
1154.4706919086857 423.4722137036811 -17.882594599184714 125 144 122
1146.8546291182442 451.2577899740667 -16.64148568073051 224 211 210
1152.4196439344082 414.45152111667187 -17.602992044905328 239 222 214
1063.3746116963262 461.0328907976293 -2.644376950916934 110 120 110
1183.798809473328 456.6188223677211 -21.01782478309257 215 205 205
1239.4946713784964 447.45453657244525 -31.97408233656003 170 167 176
1199.4970513839517 389.02638735098816 -24.808580089268354 229 208 196
1289.5646871113374 450.1621914379654 -26.68697900838452 114 123 125
1213.338333559199 422.9086062925342 -22.727660695017953 255 254 255
1287.3684807340246 488.98569695325403 -34.14681088404282 90 112 115
1119.009666207342 497.7154337190996 -10.291531727586493 255 255 255
1139.587846260247 433.08100835810154 -14.956360748621542 240 215 214
1121.0329683037517 310.4821105514356 -15.854032859777254 70 72 77
1148.2242334739688 428.83287028984125 -15.094395737610443 222 216 219
1176.676171906721 453.8466059972226 -21.01334285529804 130 149 131
1125.5339381215047 503.1046763676635 -10.464264067590753 255 254 255
1163.975097437832 481.61375322308385 -19.00266451578626 117 116 127
1233.2257952321847 554.4539013725326 -46.66478212617935 124 147 133
1115.9286821914118 436.4030086966777 -9.866667629536263 128 148 131
1232.8093205214757 522.7834346813332 19.42213623879979 105 139 178
1248.1319488742886 581.5884254504712 -39.472198631214816 177 180 192
1291.1123721521985 515.0879066823378 -39.18067930462569 192 186 163
1113.8303506414773 458.17400847422743 -8.27724731971601 109 129 111
1157.409008774933 552.2990016757359 -30.581795514673264 243 240 242
1113.6830984593537 452.8967766634812 -10.845563973604547 217 214 215
1167.1526394678851 459.40123683109186 -19.402141248266723 238 228 227
1300.8553296352952 448.7274575075073 -35.92816979162825 125 135 158
1213.338333559199 422.9086062925342 -22.727660695017953 255 254 255
1238.6198465931457 438.48951884180127 -30.261478254925873 251 247 246
1172.4460450411536 379.95894571660114 -21.7663267764235 110 119 141
1168.9222223099189 424.61337646244976 -19.81550864693221 250 244 240
1257.297076379944 419.61687532171453 -29.986144436027395 250 247 246
1209.2684494893435 492.92588719128116 -30.78301264579266 114 122 142
1288.5418978298442 514.0406921545756 -42.48915514288479 88 100 111
1109.9066967989115 456.2676116261578 -7.548228357803756 98 116 113
1279.7648278481079 450.54094108682585 -32.52093128993792 91 103 119
1148.8757014817404 354.45392517057326 -18.279095237538673 244 241 240
1081.6313948623126 523.5151513041153 -3.141559555066851 246 245 250
1221.7104456888244 424.29820470878536 -26.156065044423606 102 113 123
1101.9538012395476 515.333538784996 -6.576211944897253 255 255 255
1308.754449048807 460.22484845120783 -35.34418724496388 164 166 180
1201.3227557294467 387.18101018602454 -23.344035712898805 188 185 195
1163.975097437832 481.61375322308385 -19.00266451578626 117 116 127
1203.9095221277896 486.76592231007965 -29.411262037808125 114 124 144
1142.553778146446 358.45644259219836 -17.980369674156194 105 112 130
1149.9390543610584 543.5368591365087 -27.409418081581364 87 104 113
1265.4774179621681 445.0051436594535 -33.82970152880609 169 160 167
751.4679076913881 -13.636474402276392 419.95493931988074 255 0 0
751.6607029270272 -13.745588362054587 419.97245665260436 255 0 0
751.8534981626664 -13.854702321832782 419.989973985328 255 0 0
752.0462933983055 -13.963816281610978 420.0074913180517 255 0 0
752.2390886339447 -14.072930241389173 420.0250086507753 255 0 0
752.4318838695838 -14.182044201167368 420.04252598349893 255 0 0
752.624679105223 -14.291158160945564 420.06004331622256 255 0 0
752.8174743408621 -14.400272120723757 420.07756064894625 255 0 0
753.0102695765013 -14.509386080501953 420.0950779816699 255 0 0
753.2030648121404 -14.618500040280148 420.1125953143935 255 0 0
751.4679076913881 -13.636474402276392 419.95493931988074 0 255 0
751.4187402962891 -13.752712800405352 419.772035197158 0 255 0
751.3695729011902 -13.868951198534312 419.5891310744352 0 255 0
751.3204055060912 -13.985189596663272 419.4062269517125 0 255 0
751.2712381109923 -14.101427994792232 419.22332282898975 0 255 0
751.2220707158933 -14.217666392921192 419.04041870626696 0 255 0
751.1729033207944 -14.333904791050152 418.85751458354423 0 255 0
751.1237359256954 -14.45014318917911 418.67461046082144 0 255 0
751.0745685305965 -14.56638158730807 418.4917063380987 0 255 0
751.0254011354975 -14.68261998543703 418.308802215376 0 255 0
751.4679076913881 -13.636474402276392 419.95493931988074 0 0 255
751.566878800422 -13.481666474083683 419.82995155650104 0 0 255
751.665849909456 -13.326858545890977 419.7049637931214 0 0 255
751.7648210184899 -13.172050617698268 419.5799760297417 0 0 255
751.8637921275239 -13.017242689505562 419.4549882663621 0 0 255
751.9627632365579 -12.862434761312853 419.3300005029824 0 0 255
752.0617343455918 -12.707626833120147 419.20501273960275 0 0 255
752.1607054546258 -12.552818904927438 419.08002497622306 0 0 255
752.2596765636598 -12.398010976734732 418.95503721284337 0 0 255
752.3586476726937 -12.243203048542023 418.83004944946373 0 0 255
969.9300398255297 -15.47310030024812 424.9267872214846 255 0 0
970.120867683431 -15.582956612090712 424.9567711412835 255 0 0
970.3116955413324 -15.692812923933305 424.98675506108253 255 0 0
970.5025233992337 -15.802669235775896 425.0167389808815 255 0 0
970.6933512571351 -15.91252554761849 425.04672290068044 255 0 0
970.8841791150363 -16.02238185946108 425.07670682047944 255 0 0
971.0750069729377 -16.132238171303673 425.1066907402784 255 0 0
971.265834830839 -16.242094483146268 425.13667466007735 255 0 0
971.4566626887404 -16.35195079498886 425.16665857987635 255 0 0
971.6474905466417 -16.46180710683145 425.1966424996753 255 0 0
969.9300398255297 -15.47310030024812 424.9267872214846 0 255 0
969.8768925316907 -15.610768997832945 424.760638460092 0 255 0
969.8237452378517 -15.748437695417769 424.59448969869953 0 255 0
969.7705979440127 -15.886106393002594 424.428340937307 0 255 0
969.7174506501736 -16.023775090587417 424.26219217591444 0 255 0
969.6643033563347 -16.161443788172242 424.09604341452194 0 255 0
969.6111560624956 -16.299112485757068 423.9298946531294 0 255 0
969.5580087686567 -16.43678118334189 423.76374589173685 0 255 0
969.5048614748176 -16.574449880926714 423.59759713034435 0 255 0
969.4517141809787 -16.71211857851154 423.4314483689518 0 255 0
969.9300398255297 -15.47310030024812 424.9267872214846 0 0 255
970.0307513435192 -15.337595184097387 424.7822940739287 0 0 255
970.1314628615088 -15.202090067946651 424.63780092637285 0 0 255
970.2321743794982 -15.066584951795917 424.493307778817 0 0 255
970.3328858974878 -14.931079835645182 424.3488146312611 0 0 255
970.4335974154774 -14.795574719494448 424.20432148370526 0 0 255
970.534308933467 -14.660069603343715 424.0598283361494 0 0 255
970.6350204514565 -14.524564487192979 423.91533518859353 0 0 255
970.7357319694461 -14.389059371042245 423.77084204103767 0 0 255
970.8364434874355 -14.25355425489151 423.6263488934818 0 0 255
