ply
format ascii 1.0
element vertex 228
property float x
property float y
property float z
property uchar diffuse_red
property uchar diffuse_green
property uchar diffuse_blue
end_header
-619.557940758943 985.3469115795161 -25.73054361908774 222 219 216
-805.3905423853558 1030.2590552295885 16.81449388229261 83 93 94
-689.964402682655 1064.1153232753063 -13.784501195322475 120 143 109
-640.5662308257594 936.0988091876347 -21.2795664541614 240 241 246
-603.7194382480677 1137.6367508269784 -23.906976197661322 230 216 202
-330.79238805482964 1592.535356676786 -46.36550657563674 121 127 109
-738.9579288882552 843.0774198656375 -12.55984538041297 206 198 192
-768.7925794934082 776.3894908555166 -6.888160833548856 241 242 245
-583.1181441581197 1131.3969957418883 -26.968585475982923 166 167 171
-620.269023558655 859.6989346390644 -27.48264172949486 93 113 94
-659.1742324269919 1032.815566068534 -16.45205386845681 247 244 236
-101.72073775708095 1498.004238770463 -79.29848710787348 139 134 116
-604.434228107105 792.6388819730739 -23.039138521406873 103 128 167
-619.8130842488534 1188.8884702985065 -13.49913001396148 93 93 92
-681.9003468180559 1027.3479201552043 -16.335154156967505 145 146 149
-727.4488024469916 1089.834969749638 -5.501497364285622 171 160 121
-793.1399116869418 972.1844981256997 2.094930640810566 138 133 111
-814.5620043782718 828.9536711555206 0.12839465261057287 230 231 231
-682.090989478088 1143.8367774860596 1.6804229161527062 218 215 218
-624.1140589566205 920.4722802946451 -22.031622693537766 135 131 132
-444.9461978072533 1253.3926455700635 -37.960000908243266 64 81 72
-645.9288423119224 1047.385830316658 -11.568629796644219 149 161 185
-561.8017512169466 1153.6675306536886 -30.99328364085007 238 216 209
-91.57033776274626 2855.208025069959 -324.01442633475114 90 122 98
-623.839563554665 1992.5954407410875 -169.441149024237 120 155 107
-561.8017512169466 1153.6675306536886 -30.99328364085008 238 216 209
-560.2961897239728 886.7060024694224 -26.23806572997294 61 71 72
-774.634502940021 705.4044462470188 -5.039974316517273 166 170 151
-726.7400817116237 1139.135017444913 3.3818438932765766 242 242 246
-657.6785743572522 1078.9720435991137 -14.413921587297667 91 102 96
-646.8506950058028 1035.935133149437 -16.473601719441227 248 242 225
-689.7646887759726 1112.6176927849176 -9.5553551722134 107 114 123
612.7029443495389 4017.4628236574995 -528.1591933869462 133 163 120
-590.5259556101646 960.1665169057347 -29.650397076326378 216 216 221
-235.6091909647268 1513.7778573579055 -66.49572576489663 153 161 117
-484.5509175534723 1237.1282330502263 -38.718024396453906 195 183 154
-489.68191382655414 917.8387850960687 -47.331074297705065 55 65 67
-604.5349049048712 817.7060562953287 -22.766484053851205 103 110 123
-624.1770528910916 982.6368325151682 -18.616991331839994 184 179 185
-830.8442423554899 972.8284398019036 14.20114098470149 142 148 124
775.7972294649691 4327.433021328114 -575.8026440037253 97 127 112
-729.8262212959071 854.9940701117064 -8.526085623303029 77 89 89
-381.18955697485444 1144.8267278048972 -45.66451575708084 117 133 95
-752.0473061452371 742.2525378883004 -12.505503746930696 130 138 131
-616.6968715172492 857.2141440905841 -26.354321515537794 223 223 228
-568.904927763318 856.7905970680395 -34.97341723615526 74 95 80
-659.2200988570153 775.7113803181587 -19.917256723418827 225 229 239
-651.4545270006327 1146.6294583706501 -12.528614839081321 110 135 104
-586.6690674003455 1149.629435438294 -28.395150578386048 238 223 218
-707.5610847709565 933.5343023831603 -15.81608358497519 203 195 191
-638.6593512337683 912.3921758712324 -21.05995153318122 171 122 129
-641.3221177435411 855.4544419546921 -23.34617139608571 90 112 97
-740.4079373944935 870.193848586103 -4.691736186314961 239 241 246
-667.0338696738942 825.3311050430552 -19.00946906516561 107 114 127
-635.1099575203393 886.146651532396 -25.48151349361966 231 235 244
-681.6259101445625 856.0903139062951 -13.667774115540709 104 107 116
-569.7475126721483 1077.0679724825698 -27.537720404912765 122 124 128
-594.6854257991652 853.9040108051751 -25.7305203893197 55 69 71
-384.20304002792966 1339.9310636875985 -42.77017190865264 102 123 93
-745.3736029847498 886.3393009993234 -2.1051357182077886 207 208 213
-539.4063254379172 969.1723653520007 -39.099953561560675 230 234 239
-542.6145988908993 1276.6315988911197 -27.13854347398597 152 158 128
-578.5188090598086 1150.7439981149848 -29.966769900178065 223 219 205
-824.5417093921618 979.6277193021325 14.422803553471777 233 224 211
-844.7627975315094 824.4364208694633 11.534779587341168 195 201 207
-817.9357637115505 1076.0546217174285 16.981579706758726 141 142 145
-755.532737344699 989.2183245591078 -17.35301679093353 216 182 151
-517.5779562669509 2506.51076101575 -196.96951889427856 62 84 84
-523.2400233244276 1201.093502606577 -26.213010817295793 248 248 248
-101.72073775708095 1498.004238770463 -79.29848710787348 139 134 116
-569.8676899192056 1265.2882129719792 -14.077352087668164 240 243 247
-641.8618740970128 789.911954163986 -18.597791486749134 62 78 75
-693.7763503898891 895.7793843583944 -16.44686801973909 227 228 231
-526.231386234667 1204.1926370117446 -20.65059974136802 144 165 135
-610.7956607837892 1237.7476987279144 -8.963871296837826 228 215 178
-776.3490047765825 701.6723691976962 -7.591988082915157 72 86 89
-599.011844297554 1263.7380192189507 -9.00024051177753 236 239 244
-607.0555326228828 854.7096578279378 -26.735017380032627 165 162 159
-739.6033277593435 847.3727775577541 -11.153918659679784 118 122 125
-523.1251441329254 1329.6108209611689 -27.439961741505645 101 110 108
-104.45028942479546 1507.8015369299983 -76.83584558246521 197 174 158
-596.900835982701 804.744213471554 -18.05908420434282 110 112 124
-833.765898226177 824.3386341313495 4.582502000022632 208 207 178
-696.4999392078703 1081.9868176553434 -8.003324681353533 116 141 104
-810.2852207862142 1039.5463655659812 17.739200816913485 187 188 194
-747.4267327022476 839.9406772440659 -10.303328962759496 198 191 188
-652.5070987821927 808.4062082393184 -20.526320978651633 230 233 242
-834.3744491572696 939.5264959440243 19.275214083950853 100 104 115
-759.8885433661137 768.655244053476 -6.490779420755572 122 123 134
-655.1304705653422 763.0776746910483 -24.0573009890023 92 94 93
-590.9156087061015 1163.5428108699718 -21.357727040603166 232 209 205
-677.6228062429785 845.6574961351048 -21.30794431737255 99 95 97
-795.5542280397126 936.3717117583723 0.778902871069464 225 186 160
-687.9183827698887 846.7372668704948 -18.607170085478693 92 94 96
-567.701226534675 1159.6057809203978 -29.280893494249288 87 94 94
-816.2538814657636 830.2545502812584 4.411884806354545 115 114 110
-642.4353488630518 1200.700425610376 -10.748301686857369 194 202 212
-752.7840977018309 786.9686044162248 -5.201117649171974 207 210 220
-575.0948568752873 852.6488073496203 -35.02775692080187 155 166 175
-449.09992056887313 1120.743988118134 -51.5490475001462 99 126 81
-567.701226534675 1159.6057809203978 -29.280893494249288 87 94 94
-594.7138088273895 1119.9305919171386 -30.909776184008255 238 236 237
-693.9699962771604 1181.2203582697591 10.398830077110183 127 127 120
-603.4380835270202 852.4410648127551 -31.533804038446743 176 181 188
-169.6529060038763 2784.2126057177807 -309.4492689209649 124 158 113
-603.4380835270202 852.4410648127551 -31.533804038446743 176 181 188
-810.3617085233183 833.3585042686266 15.093801084723248 155 149 151
-735.5448467136314 855.778401605235 -12.172316698315646 179 200 193
775.7972294649691 4327.433021328114 -575.8026440037253 97 127 112
-572.1396870167374 865.7405944387539 -28.51047988711762 205 205 209
-689.1231752247119 1147.4532270413488 -0.35192642992950335 186 178 175
-589.4549316723953 782.4470245964769 -29.561424155213242 197 210 225
-628.6613030317831 1142.4075184847889 -18.322888116359383 105 120 102
-478.03832453750107 1005.6696873225859 -44.38966973066528 53 65 80
-692.4240704401697 1134.524578700015 -4.102363898896713 107 91 96
-589.7130012390259 1135.6482389525731 -27.713624643687133 157 158 162
-756.747452717539 1117.3966387132602 6.621920917246321 223 215 194
-686.7521139518705 1084.5824045941229 -12.762775744682632 117 144 110
-532.5971887851515 1172.33594006451 -32.930520444466715 234 214 204
-568.8024608625394 2396.7625267981166 -175.5501738632768 101 113 99
-662.9245955531868 845.2601189099746 -21.714924633541226 65 74 87
-567.7232714941988 1011.790840953166 -26.398730577612596 154 146 140
-764.6628075706972 848.6141955324485 1.4605114426786265 96 103 103
-791.9759281187637 1095.0807634842101 10.905604269251214 219 207 194
-819.2862051113433 789.611010005178 3.342733437204955 112 110 116
-544.3342231122432 844.98651226296 -32.68291556891812 90 114 78
-602.9529177287673 847.455532071141 -27.054823529761485 71 86 81
-616.5785989756407 849.011909570207 -26.035791534841156 74 87 105
-812.889692051233 824.9197745303037 -0.599762184107934 150 149 151
-837.6305311041626 936.109064181002 16.55041546078968 225 225 226
-592.1771720959798 1108.5928350628117 -28.72665969045612 139 161 117
-636.8871965341712 1228.5544109374848 -11.981818931236694 185 181 180
-644.5518881917664 1260.250081017313 -3.498666853584379 98 113 99
-676.7511330688925 1127.6669610877252 -11.446645485995806 151 99 110
-646.5994998827988 855.2104370827238 -25.574560219059148 117 101 112
-476.3930528054049 1359.1498635652022 -31.06729313067229 174 123 124
-476.39305280540486 1359.1498635652022 -31.067293130672375 174 123 124
-218.36855797310207 1572.5962952470436 -54.656448359926785 191 180 142
-766.150749903333 931.9969377733771 -6.986663492534118 141 139 115
-524.5605047479025 1175.9601821913277 -34.10530280228763 82 92 94
-689.7646887759726 1112.6176927849176 -9.555355172213403 107 114 123
-571.3460307239056 1365.3657280929615 -21.162559333729902 91 104 103
-662.8321846913843 925.4272185622224 -19.076249598034597 203 213 228
-463.82508422414026 1200.1575572512406 -43.70111726104916 64 84 73
-707.5011860401736 897.0643363606986 -16.115780005172727 132 134 141
-833.5132111178976 828.8298528901585 5.499025086028097 122 128 119
-585.6698463139445 855.8689916877153 -35.7994371429736 160 159 164
-663.3464229192359 974.4968688744442 -17.965533739851253 85 92 89
-1.6320268454947262 2988.3951420988956 -351.5694980632532 109 137 109
-660.1008461982876 840.074351246652 -22.29701967223416 185 181 180
-567.9838051352565 864.1975555551687 -28.254981442345247 52 68 69
-205.1241443401974 1569.9522287009395 -67.63105211565708 172 171 138
-739.3290060900757 734.8246743535072 -15.510173027453353 180 175 172
-593.640009448314 787.396280567056 -22.54817020681248 226 232 244
-95.03771188002017 2824.8070035205697 -325.2023946506626 134 161 115
-493.96986305370365 1197.6848291911774 -41.07964525325975 162 162 148
-552.1252008286438 2088.603790574265 -189.75795580471342 155 173 122
-654.3655147522192 768.2461048746754 -16.16903434777778 163 168 194
-555.7350121204963 2395.3330811310716 -180.7249389588233 61 80 80
-502.39106038356243 914.476494879488 -43.605232181350964 85 113 87
-640.6563308579725 900.6927489582232 -20.65751588863395 106 118 101
-841.6021834792955 935.0848082423456 19.376038271543116 136 146 155
-553.9656708287624 1144.8303708092149 -33.531133487853374 155 158 162
-566.8965156933957 1174.3896633732747 -23.734840644086315 241 241 243
-572.9817031984848 2427.4900029056703 -180.50444089259432 77 93 84
-552.1252008286439 2088.6037905742646 -189.75795580471325 155 173 122
-648.5680286347965 1025.8919217790506 -22.33202716324526 103 111 103
-727.6957368173724 848.7543829223273 -13.875245550139915 193 184 178
-953.7683566116003 8.875247886051966 418.93047357775106 255 0 0
-953.5666865332029 8.782196758908752 418.9377799630362 255 0 0
-953.3650164548054 8.689145631765536 418.9450863483213 255 0 0
-953.1633463764081 8.596094504622322 418.9523927336064 255 0 0
-952.9616762980106 8.503043377479106 418.9596991188916 255 0 0
-952.7600062196132 8.409992250335891 418.9670055041767 255 0 0
-952.5583361412157 8.316941123192676 418.97431188946183 255 0 0
-952.3566660628184 8.223889996049461 418.98161827474695 255 0 0
-952.1549959844209 8.130838868906247 418.98892466003207 255 0 0
-951.9533259060235 8.037787741763031 418.9962310453172 255 0 0
-953.7683566116003 8.875247886051966 418.93047357775106 0 255 0
-953.7989661715393 8.792880819208985 418.72636224247196 0 255 0
-953.8295757314784 8.710513752366007 418.5222509071929 0 255 0
-953.8601852914173 8.628146685523026 418.31813957191383 0 255 0
-953.8907948513563 8.545779618680045 418.11402823663474 0 255 0
-953.9214044112954 8.463412551837067 417.9099169013557 0 255 0
-953.9520139712344 8.381045484994086 417.7058055660766 0 255 0
-953.9826235311733 8.298678418151106 417.5016942307975 0 255 0
-954.0132330911123 8.216311351308127 417.2975828955185 0 255 0
-954.0438426510514 8.133944284465146 417.0934715602394 0 255 0
-953.7683566116003 8.875247886051966 418.93047357775106 0 0 255
-953.6801809325902 9.059475652923423 418.84290705678535 0 0 255
-953.59200525358 9.24370341979488 418.7553405358196 0 0 255
-953.50382957457 9.427931186666338 418.6677740148539 0 0 255
-953.4156538955598 9.612158953537795 418.58020749388817 0 0 255
-953.3274782165497 9.796386720409252 418.49264097292246 0 0 255
-953.2393025375395 9.980614487280711 418.4050744519567 0 0 255
-953.1511268585294 10.164842254152168 418.317507930991 0 0 255
-953.0629511795192 10.349070021023625 418.2299414100253 0 0 255
-952.9747755005092 10.533297787895082 418.14237488905957 0 0 255
-1133.5027353010755 29.740522473549902 430.89735747271834 255 0 0
-1133.292074230706 29.670052602947646 430.89114242505786 255 0 0
-1133.0814131603363 29.599582732345386 430.88492737739733 255 0 0
-1132.8707520899668 29.52911286174313 430.87871232973686 255 0 0
-1132.660091019597 29.458642991140874 430.8724972820764 255 0 0
-1132.4494299492276 29.388173120538614 430.86628223441585 255 0 0
-1132.238768878858 29.317703249936358 430.8600671867554 255 0 0
-1132.0281078084884 29.2472333793341 430.8538521390949 255 0 0
-1131.8174467381189 29.17676350873184 430.84763709143436 255 0 0
-1131.6067856677491 29.106293638129586 430.8414220437739 255 0 0
-1133.5027353010755 29.740522473549902 430.89735747271834 0 255 0
-1133.5339426313344 29.665472729370872 430.69053301941034 0 255 0
-1133.565149961593 29.590422985191843 430.4837085661023 0 255 0
-1133.596357291852 29.515373241012814 430.2768841127943 0 255 0
-1133.6275646221106 29.440323496833784 430.0700596594862 0 255 0
-1133.6587719523695 29.365273752654755 429.8632352061782 0 255 0
-1133.6899792826282 29.290224008475725 429.65641075287016 0 255 0
-1133.721186612887 29.215174264296692 429.44958629956216 0 255 0
-1133.7523939431458 29.140124520117663 429.24276184625415 0 255 0
-1133.7836012734047 29.065074775938633 429.0359373929461 0 255 0
-1133.5027353010755 29.740522473549902 430.89735747271834 0 0 255
-1133.439247254813 29.937459644458155 430.8163159108763 0 0 255
-1133.3757592085503 30.134396815366404 430.7352743490343 0 0 255
-1133.3122711622877 30.331333986274657 430.65423278719226 0 0 255
-1133.2487831160252 30.52827115718291 430.5731912253502 0 0 255
-1133.1852950697626 30.72520832809116 430.49214966350814 0 0 255
-1133.1218070235 30.922145498999413 430.4111081016661 0 0 255
-1133.0583189772374 31.119082669907666 430.3300665398241 0 0 255
-1132.9948309309748 31.316019840815915 430.24902497798206 0 0 255
-1132.9313428847122 31.51295701172417 430.16798341614003 0 0 255
